ply
format ascii 1.0
element vertex 1208
property float x
property float y
property float z
property uchar red
property uchar green
property uchar blue
end_header
-20.000000 -1.250000 -42.666668 139 153 141 
-19.916666 -1.250000 -42.666668 139 153 141 
-19.833334 -1.250000 -42.666668 139 153 141 
-19.750000 -1.250000 -42.666668 139 153 141 
-19.666666 -1.250000 -42.666668 139 152 143 
-19.583334 -1.250000 -42.666668 139 152 143 
-19.602095 -1.256544 -42.890053 139 151 147 
-19.621052 -1.263158 -43.115791 139 151 147 
-19.536842 -1.263158 -43.115791 141 151 147 
-19.555555 -1.269841 -43.343914 141 151 147 
-20.674158 -1.348315 -46.022472 140 150 144 
-15.000000 -1.000000 -34.133335 143 154 146 
-14.933333 -1.000000 -34.133335 143 153 148 
-14.866667 -1.000000 -34.133335 143 153 148 
-14.800000 -1.000000 -34.133335 143 154 146 
-14.733334 -1.000000 -34.133335 143 154 146 
-14.666667 -1.000000 -34.133335 143 154 144 
-14.600000 -1.000000 -34.133335 143 154 144 
-14.533334 -1.000000 -34.133335 142 153 142 
-14.466666 -1.000000 -34.133335 143 154 144 
-14.400000 -1.000000 -34.133335 143 154 146 
-14.333333 -1.000000 -34.133335 143 154 146 
-14.266666 -1.000000 -34.133335 143 153 148 
-inf -inf -inf 143 153 148 
-inf -inf -inf 143 153 148 
-inf -inf -inf 143 153 148 
-inf -inf -inf 143 153 148 
-inf -inf -inf 143 153 148 
-inf -inf -inf 143 154 146 
-inf -inf -inf 144 155 147 
-inf -inf -inf 144 155 147 
-inf -inf -inf 144 155 147 
-inf -inf -inf 144 155 147 
-inf -inf -inf 144 155 147 
-inf -inf -inf 146 154 145 
-inf -inf -inf 147 156 146 
-inf -inf -inf 147 156 146 
-inf -inf -inf 147 156 146 
-inf -inf -inf 146 156 146 
-inf -inf -inf 146 156 146 
-inf -inf -inf 146 156 146 
-inf -inf -inf 146 156 146 
-inf -inf -inf 146 156 148 
-inf -inf -inf 146 156 148 
-inf -inf -inf 146 156 148 
-inf -inf -inf 146 156 148 
-inf -inf -inf 146 156 146 
-inf -inf -inf 147 158 147 
-inf -inf -inf 147 158 145 
-inf -inf -inf 147 158 145 
-inf -inf -inf 147 158 145 
-inf -inf -inf 147 158 145 
-19.857143 -2.142857 -73.142860 152 160 151 
-18.247934 -1.983471 -67.702477 155 161 152 
-17.259842 -1.889764 -64.503937 153 159 151 
-16.484848 -1.818182 -62.060608 153 160 149 
-16.363636 -1.818182 -62.060608 153 160 149 
-11.767742 -1.548387 -52.851612 232 43 71 
-11.589744 -1.538462 -52.512821 234 45 72 
-11.341772 -1.518987 -51.848103 232 45 74 
-11.100000 -1.500000 -51.200001 228 42 70 
-11.000000 -1.500000 -51.200001 221 38 70 
-10.832298 -1.490683 -50.881989 223 40 72 
-10.601227 -1.472393 -50.257668 211 30 64 
-10.313253 -1.445783 -49.349396 215 35 68 
-9.976471 -1.411765 -48.188236 226 46 75 
-9.600000 -1.371429 -46.811428 234 54 83 
-9.348314 -1.348315 -46.022472 235 69 86 
-9.104973 -1.325967 -45.259670 226 59 77 
-8.967033 -1.318681 -45.010990 198 71 69 
-8.830601 -1.311475 -44.765026 204 77 74 
-8.602151 -1.290323 -44.043011 171 99 69 
-8.336843 -1.263158 -43.115791 162 89 59 
-8.166667 -1.250000 -42.666668 148 90 53 
-7.958974 -1.230769 -42.010258 148 90 53 
-7.718593 -1.206030 -41.165829 147 91 60 
-7.524753 -1.188119 -40.554455 147 91 60 
-7.408867 -1.182266 -40.354679 148 88 61 
-7.223301 -1.165049 -39.766991 145 86 58 
-7.111111 -1.159420 -39.574879 152 79 65 
-6.966507 -1.148325 -39.196171 153 81 66 
-6.889952 -1.148325 -39.196171 157 83 76 
-6.780952 -1.142857 -39.009525 160 86 79 
-6.704762 -1.142857 -39.009525 156 92 82 
-6.628572 -1.142857 -39.009525 157 93 83 
-6.552381 -1.142857 -39.009525 161 91 74 
-6.445498 -1.137441 -38.824646 160 90 73 
-6.251163 -1.116279 -38.102325 165 89 67 
-6.063927 -1.095890 -37.406391 165 89 67 
-5.936652 -1.085973 -37.067875 169 93 71 
-5.837838 -1.081081 -36.900902 178 101 79 
-5.688889 -1.066667 -36.408890 171 110 92 
-5.519650 -1.048035 -35.772926 176 115 97 
-5.449782 -1.048035 -35.772926 170 118 104 
-5.427313 -1.057269 -36.088104 168 116 102 
-5.380531 -1.061947 -36.247787 165 115 100 
-5.309734 -1.061947 -36.247787 172 122 107 
-5.215859 -1.057269 -36.088104 172 127 108 
-4.866667 -1.000000 -34.133335 192 148 129 
-4.800000 -1.000000 -34.133335 197 154 137 
-4.733333 -1.000000 -34.133335 194 152 134 
-4.890830 -1.048035 -35.772926 201 155 139 
-4.906667 -1.066667 -36.408890 208 162 146 
-4.857143 -1.071429 -36.571430 200 163 144 
-4.850679 -1.085973 -37.067875 196 158 139 
-5.151219 -1.170732 -39.960976 187 158 141 
-5.123153 -1.182266 -40.354679 189 160 143 
-5.044335 -1.182266 -40.354679 186 162 152 
-4.941176 -1.176471 -40.156864 188 165 154 
-4.910891 -1.188119 -40.554455 188 166 160 
-inf -inf -inf 37 16 21 
-inf -inf -inf 37 16 21 
-0.146789 -2.201835 -75.155960 37 18 20 
0.000000 -2.201835 -75.155960 36 19 25 
0.150943 -2.264151 -77.283020 35 18 24 
0.301887 -2.264151 -77.283020 58 41 47 
0.452830 -2.264151 -77.283020 85 68 74 
1.828571 -6.857143 -234.057144 66 51 47 
2.285714 -6.857143 -234.057144 65 50 46 
2.232558 -5.581395 -190.511627 59 51 47 
2.488889 -5.333333 -182.044449 59 51 47 
2.782609 -5.217391 -178.086960 55 53 49 
3.063830 -5.106383 -174.297867 55 53 49 
3.333333 -5.000000 -170.666672 55 51 46 
3.666667 -5.000000 -170.666672 53 49 43 
4.000000 -5.000000 -170.666672 53 49 43 
4.160000 -4.800000 -163.839996 52 48 42 
4.480000 -4.800000 -163.839996 51 45 40 
5.000000 -5.000000 -170.666672 51 45 40 
5.333333 -5.000000 -170.666672 48 42 38 
5.440000 -4.800000 -163.839996 47 41 37 
4.881356 -4.067797 -138.847458 43 39 38 
4.825397 -3.809524 -130.031754 42 38 37 
4.507042 -3.380282 -115.380280 41 38 39 
4.732394 -3.380282 -115.380280 41 38 39 
4.292683 -2.926829 -99.902435 41 38 39 
2.211982 -1.105991 -37.751152 35 32 33 
2.066667 -1.000000 -34.133335 35 32 33 
2.133333 -1.000000 -34.133335 34 32 28 
2.200000 -1.000000 -34.133335 34 32 28 
2.266667 -1.000000 -34.133335 32 31 25 
2.333333 -1.000000 -34.133335 32 31 25 
2.400000 -1.000000 -34.133335 35 31 28 
2.466667 -1.000000 -34.133335 34 30 27 
2.533333 -1.000000 -34.133335 34 30 27 
2.600000 -1.000000 -34.133335 34 30 27 
2.666667 -1.000000 -34.133335 30 28 25 
2.733333 -1.000000 -34.133335 30 28 25 
2.800000 -1.000000 -34.133335 27 28 23 
2.866667 -1.000000 -34.133335 26 27 22 
2.933333 -1.000000 -34.133335 31 26 27 
3.000000 -1.000000 -34.133335 31 26 27 
4.600000 -1.500000 -51.200001 31 26 27 
4.700000 -1.500000 -51.200001 31 26 27 
4.800000 -1.500000 -51.200001 33 32 37 
4.962025 -1.518987 -51.848103 52 51 56 
5.063291 -1.518987 -51.848103 65 81 80 
5.164557 -1.518987 -51.848103 77 93 92 
5.265823 -1.518987 -51.848103 80 104 96 
5.367089 -1.518987 -51.848103 55 79 71 
5.468354 -1.518987 -51.848103 14 24 20 
6.017699 -1.061947 -36.247787 161 94 71 
6.061674 -1.057269 -36.088104 169 97 74 
6.132159 -1.057269 -36.088104 172 101 77 
6.230089 -1.061947 -36.247787 175 108 83 
6.328889 -1.066667 -36.408890 173 107 82 
6.428571 -1.071429 -36.571430 173 107 82 
6.500000 -1.071429 -36.571430 172 106 81 
6.571429 -1.071429 -36.571430 173 107 82 
6.672646 -1.076233 -36.735428 175 108 83 
6.744395 -1.076233 -36.735428 173 113 90 
6.816144 -1.076233 -36.735428 170 110 87 
6.887892 -1.076233 -36.735428 163 103 80 
6.959641 -1.076233 -36.735428 156 96 73 
7.063063 -1.081081 -36.900902 160 92 74 
7.135135 -1.081081 -36.900902 158 91 73 
7.272727 -1.090909 -37.236362 152 88 73 
7.447005 -1.105991 -37.751152 147 83 68 
7.520737 -1.105991 -37.751152 156 86 73 
7.525114 -1.095890 -37.406391 159 88 75 
7.428571 -1.071429 -36.571430 161 94 71 
7.368421 -1.052632 -35.929825 158 91 69 
7.341991 -1.038961 -35.463203 157 92 59 
7.411255 -1.038961 -35.463203 154 88 56 
7.200000 -1.000000 -34.133335 156 86 53 
7.266667 -1.000000 -34.133335 155 85 51 
7.333333 -1.000000 -34.133335 155 83 60 
7.400000 -1.000000 -34.133335 150 79 55 
7.466667 -1.000000 -34.133335 140 72 56 
9.814433 -1.237113 -42.226803 107 46 30 
9.948187 -1.243523 -42.445595 85 23 12 
10.031088 -1.243523 -42.445595 154 92 81 
10.166667 -1.250000 -42.666668 175 130 113 
10.196891 -1.243523 -42.445595 199 154 138 
10.279793 -1.243523 -42.445595 178 152 132 
10.362695 -1.243523 -42.445595 181 155 134 
10.445596 -1.243523 -42.445595 200 176 159 
10.474227 -1.237113 -42.226803 130 106 89 
10.395939 -1.218274 -41.583755 48 25 13 
10.477158 -1.218274 -41.583755 137 114 101 
10.505051 -1.212121 -41.373737 143 125 111 
10.585858 -1.212121 -41.373737 162 143 129 
9.266666 -1.000000 -34.133335 191 161 146 
9.333333 -1.000000 -34.133335 196 167 152 
9.400000 -1.000000 -34.133335 193 163 148 
9.466666 -1.000000 -34.133335 174 146 124 
9.533334 -1.000000 -34.133335 165 137 114 
9.600000 -1.000000 -34.133335 155 129 110 
9.666667 -1.000000 -34.133335 159 132 114 
9.733334 -1.000000 -34.133335 159 135 127 
9.800000 -1.000000 -34.133335 162 139 131 
9.866667 -1.000000 -34.133335 167 143 138 
9.933333 -1.000000 -34.133335 172 148 142 
10.000000 -1.000000 -34.133335 175 151 144 
10.066667 -1.000000 -34.133335 178 154 146 
10.133333 -1.000000 -34.133335 178 154 144 
11.547170 -1.132075 -38.641510 180 157 146 
11.753554 -1.137441 -38.824646 183 157 147 
14.033520 -1.340782 -45.765362 184 158 149 
14.122905 -1.340782 -45.765362 184 158 147 
16.301888 -1.509434 -51.522011 194 165 146 
16.299999 -1.500000 -51.200001 189 161 141 
16.400000 -1.500000 -51.200001 189 161 139 
16.500000 -1.500000 -51.200001 189 161 139 
16.600000 -1.500000 -51.200001 179 155 136 
16.700001 -1.500000 -51.200001 178 154 135 
16.695652 -1.490683 -50.881989 179 155 138 
16.795031 -1.490683 -50.881989 184 159 143 
16.894409 -1.490683 -50.881989 178 116 107 
17.100000 -1.500000 -51.200001 116 54 45 
17.200001 -1.500000 -51.200001 160 22 32 
17.299999 -1.500000 -51.200001 164 26 36 
17.400000 -1.500000 -51.200001 170 17 32 
17.283951 -1.481481 -50.567902 168 15 30 
17.382715 -1.481481 -50.567902 171 11 33 
17.374233 -1.472393 -50.257668 175 14 36 
17.365854 -1.463415 -49.951218 179 17 33 
17.149700 -1.437126 -49.053894 179 17 33 
16.551723 -1.379310 -47.080460 187 14 27 
16.643679 -1.379310 -47.080460 186 13 25 
16.735632 -1.379310 -47.080460 189 11 27 
17.122807 -1.403509 -47.906433 188 9 26 
17.734940 -1.445783 -49.349396 185 6 28 
18.159510 -1.472393 -50.257668 184 5 27 
18.257669 -1.472393 -50.257668 185 6 30 
18.817610 -1.509434 -51.522011 185 6 30 
15.191919 -1.212121 -41.373737 184 7 30 
14.468900 -1.148325 -39.196171 185 8 31 
13.693694 -1.081081 -36.900902 180 12 32 
13.462555 -1.057269 -36.088104 197 30 50 
13.241380 -1.034483 -35.310345 207 45 57 
12.866667 -1.000000 -34.133335 189 28 39 
12.933333 -1.000000 -34.133335 171 13 21 
13.000000 -1.000000 -34.133335 179 21 29 
13.066667 -1.000000 -34.133335 181 36 51 
29.357798 -2.201835 -75.155960 201 50 58 
29.777779 -2.222222 -75.851852 207 56 64 
55.081966 -3.934426 -134.295074 193 31 35 
56.266666 -4.000000 -136.533340 186 24 28 
57.491524 -4.067797 -138.847458 164 20 25 
58.758621 -4.137931 -141.241379 200 56 61 
59.034481 -4.137931 -141.241379 201 127 122 
66.153847 -4.615385 -157.538467 191 116 112 
69.120003 -4.800000 -163.839996 140 141 120 
69.440002 -4.800000 -163.839996 138 139 119 
69.760002 -4.800000 -163.839996 132 142 121 
70.080002 -4.800000 -163.839996 131 141 119 
70.400002 -4.800000 -163.839996 130 143 121 
75.234039 -5.106383 -174.297867 130 143 121 
75.574471 -5.106383 -174.297867 129 142 119 
63.714287 -4.285714 -146.285721 129 142 119 
59.733334 -4.000000 -136.533340 129 142 119 
60.000000 -4.000000 -136.533340 129 142 119 
65.745453 -4.363636 -148.945450 128 141 116 
66.036362 -4.363636 -148.945450 128 141 116 
61.830509 -4.067797 -138.847458 128 141 116 
60.065575 -3.934426 -134.295074 127 140 115 
60.327869 -3.934426 -134.295074 129 138 119 
121.696968 -7.272727 -248.242432 120 132 112 
118.588234 -7.058824 -240.941177 119 131 111 
126.500000 -7.500000 -256.000000 119 131 111 
inf -inf -inf 118 130 110 
inf -inf -inf 116 128 111 
inf -inf -inf 116 128 111 
inf -inf -inf 118 130 112 
inf -inf -inf 116 128 111 
inf -inf -inf 115 127 112 
inf -inf -inf 115 127 112 
inf -inf -inf 113 127 110 
inf -inf -inf 111 125 109 
inf -inf -inf 110 127 105 
inf -inf -inf 109 126 104 
inf -inf -inf 111 127 103 
inf -inf -inf 111 127 103 
inf -inf -inf 112 124 104 
66.909088 -3.636364 -124.121216 111 123 103 
67.151512 -3.636364 -124.121216 111 123 103 
inf -inf -inf 106 118 98 
inf -inf -inf 105 118 95 
inf -inf -inf 104 116 94 
inf -inf -inf 104 116 96 
inf -inf -inf 104 116 96 
inf -inf -inf 105 115 98 
inf -inf -inf 105 115 98 
inf -inf -inf 104 113 99 
inf -inf -inf 104 113 99 
inf -inf -inf 101 113 98 
inf -inf -inf 99 111 95 
inf -inf -inf 101 110 95 
inf -inf -inf 99 109 94 
164.800003 -8.000000 -273.066681 91 107 93 
165.333328 -8.000000 -273.066681 93 104 91 
inf -inf -inf 92 103 90 
inf -inf -inf 95 102 90 
inf -inf -inf 93 99 88 
inf -inf -inf 93 100 86 
inf -inf -inf 92 99 85 
inf -inf -inf 90 100 83 
inf -inf -inf 90 100 83 
inf -inf -inf 89 99 80 
inf -inf -inf 89 99 80 
-inf -inf -inf 135 150 145 
-inf -inf -inf 135 150 145 
-inf -inf -inf 135 150 145 
-inf -inf -inf 137 149 145 
-inf -inf -inf 137 149 145 
-inf -inf -inf 137 149 145 
-inf -inf -inf 137 149 145 
-inf -inf -inf 137 149 143 
-inf -inf -inf 137 149 143 
-inf -inf -inf 137 149 143 
-inf -inf -inf 137 149 143 
-20.083334 -1.333333 -42.666668 137 152 140 
-20.000000 -1.333333 -42.666668 138 153 141 
-19.916666 -1.333333 -42.666668 138 153 141 
-19.833334 -1.333333 -42.666668 138 153 143 
-19.750000 -1.333333 -42.666668 138 153 143 
-19.666666 -1.333333 -42.666668 139 152 143 
-19.583334 -1.333333 -42.666668 139 152 143 
-20.674158 -1.438202 -46.022472 141 152 141 
-15.000000 -1.066667 -34.133335 142 153 142 
-14.933333 -1.066667 -34.133335 143 154 144 
-14.866667 -1.066667 -34.133335 143 154 144 
-14.800000 -1.066667 -34.133335 143 154 144 
-14.733334 -1.066667 -34.133335 142 153 142 
-14.666667 -1.066667 -34.133335 143 154 146 
-14.600000 -1.066667 -34.133335 143 154 146 
-14.533334 -1.066667 -34.133335 143 154 144 
-14.466666 -1.066667 -34.133335 143 154 144 
-14.400000 -1.066667 -34.133335 143 154 144 
-14.333333 -1.066667 -34.133335 143 154 144 
-14.266666 -1.066667 -34.133335 143 154 144 
-inf -inf -inf 144 154 149 
-inf -inf -inf 144 154 149 
-inf -inf -inf 146 156 148 
-inf -inf -inf 146 156 148 
-inf -inf -inf 146 156 146 
-inf -inf -inf 143 154 144 
-inf -inf -inf 146 154 145 
-inf -inf -inf 146 154 145 
-inf -inf -inf 144 155 145 
-inf -inf -inf 146 156 146 
-inf -inf -inf 146 157 144 
-inf -inf -inf 146 157 144 
-inf -inf -inf 146 157 144 
-inf -inf -inf 147 156 146 
-inf -inf -inf 146 156 146 
-inf -inf -inf 147 158 147 
-inf -inf -inf 147 157 149 
-inf -inf -inf 146 156 148 
-inf -inf -inf 146 156 148 
-inf -inf -inf 146 156 148 
-inf -inf -inf 147 158 147 
-inf -inf -inf 147 158 147 
-inf -inf -inf 147 158 147 
-inf -inf -inf 148 157 147 
-inf -inf -inf 148 157 147 
-inf -inf -inf 147 157 149 
-115.809525 -12.190476 -390.095245 152 161 149 
-18.554623 -2.151261 -68.840340 153 162 150 
-17.259842 -2.015748 -64.503937 153 162 150 
-16.484848 -1.939394 -62.060608 151 163 150 
-16.363636 -1.939394 -62.060608 151 163 150 
-11.844156 -1.662338 -53.194805 236 42 71 
-11.589744 -1.641026 -52.512821 238 44 73 
-11.341772 -1.620253 -51.848103 232 43 73 
-11.100000 -1.600000 -51.200001 231 42 72 
-11.000000 -1.600000 -51.200001 231 36 70 
-10.832298 -1.590062 -50.881989 231 36 70 
-10.601227 -1.570552 -50.257668 227 33 67 
-10.313253 -1.542169 -49.349396 225 31 64 
-9.976471 -1.505882 -48.188236 221 35 61 
-9.600000 -1.462857 -46.811428 230 43 70 
-9.296089 -1.430168 -45.765362 224 45 66 
-9.104973 -1.414365 -45.259670 214 35 57 
-8.918033 -1.398907 -44.765026 205 60 68 
-8.782609 -1.391304 -44.521740 211 66 74 
-8.602151 -1.376344 -44.043011 165 85 71 
-8.336843 -1.347368 -43.115791 161 81 67 
-8.166667 -1.333333 -42.666668 148 87 67 
-7.958974 -1.312821 -42.010258 148 87 67 
-7.718593 -1.286432 -41.165829 145 88 71 
-7.524753 -1.267327 -40.554455 145 88 71 
-7.408867 -1.261084 -40.354679 147 85 72 
-7.223301 -1.242718 -39.766991 148 86 73 
-7.111111 -1.236715 -39.574879 150 84 70 
-6.966507 -1.224880 -39.196171 151 85 71 
-6.857143 -1.219048 -39.009525 154 89 72 
-6.780952 -1.219048 -39.009525 159 93 77 
-6.704762 -1.219048 -39.009525 158 98 77 
-6.628572 -1.219048 -39.009525 156 95 75 
-6.521327 -1.213270 -38.824646 155 95 70 
-6.445498 -1.213270 -38.824646 155 95 70 
-6.222222 -1.185185 -37.925926 158 93 70 
-6.063927 -1.168950 -37.406391 159 95 71 
-5.936652 -1.158371 -37.067875 170 97 83 
-5.811659 -1.147982 -36.735428 174 101 87 
-5.663717 -1.132743 -36.247787 173 107 95 
-5.519650 -1.117904 -35.772926 177 110 98 
-5.449782 -1.117904 -35.772926 177 115 102 
-5.427313 -1.127753 -36.088104 176 114 101 
-5.356828 -1.127753 -36.088104 169 113 95 
-5.286344 -1.127753 -36.088104 168 111 94 
-5.215859 -1.127753 -36.088104 168 122 97 
-4.866667 -1.066667 -34.133335 191 145 119 
-4.800000 -1.066667 -34.133335 190 152 124 
-4.733333 -1.066667 -34.133335 190 152 124 
-4.890830 -1.117904 -35.772926 189 150 127 
-4.906667 -1.137778 -36.408890 193 153 130 
-4.857143 -1.142857 -36.571430 196 163 142 
-4.785714 -1.142857 -36.571430 198 165 145 
-4.714286 -1.142857 -36.571430 186 162 145 
-5.073171 -1.248780 -39.960976 185 160 144 
-4.995122 -1.248780 -39.960976 182 161 150 
-4.941176 -1.254902 -40.156864 183 162 151 
-4.910891 -1.267327 -40.554455 185 165 160 
-inf -inf -inf 36 21 17 
-inf -inf -inf 37 19 16 
-0.145455 -2.327273 -74.472725 35 19 22 
0.000000 -2.348624 -75.155960 36 21 30 
0.150943 -2.415094 -77.283020 34 18 28 
0.301887 -2.415094 -77.283020 52 40 44 
0.428571 -2.285714 -73.142860 78 66 71 
0.571429 -2.285714 -73.142860 69 53 52 
1.860465 -5.953488 -190.511627 66 51 49 
2.181818 -5.818182 -186.181824 61 50 47 
2.434783 -5.565217 -178.086960 61 50 47 
2.723404 -5.446808 -174.297867 56 52 51 
3.063830 -5.446808 -174.297867 56 52 51 
3.333333 -5.333333 -170.666672 52 52 50 
3.666667 -5.333333 -170.666672 51 51 49 
4.000000 -5.333333 -170.666672 47 48 45 
4.244898 -5.224490 -167.183670 47 48 45 
4.571429 -5.224490 -167.183670 46 47 42 
5.000000 -5.333333 -170.666672 44 44 40 
5.333333 -5.333333 -170.666672 48 42 38 
5.440000 -5.120000 -163.839996 46 40 35 
4.881356 -4.338983 -138.847458 45 38 36 
4.825397 -4.063492 -130.031754 44 37 35 
4.507042 -3.605634 -115.380280 42 37 39 
4.732394 -3.605634 -115.380280 42 37 39 
2.274510 -1.254902 -40.156864 38 33 30 
2.222222 -1.185185 -37.925926 35 33 29 
2.066667 -1.066667 -34.133335 35 33 29 
2.133333 -1.066667 -34.133335 35 31 30 
2.200000 -1.066667 -34.133335 35 31 30 
2.266667 -1.066667 -34.133335 34 32 30 
2.333333 -1.066667 -34.133335 34 32 30 
2.400000 -1.066667 -34.133335 31 31 29 
2.466667 -1.066667 -34.133335 32 32 30 
2.533333 -1.066667 -34.133335 31 32 25 
2.600000 -1.066667 -34.133335 29 30 23 
2.666667 -1.066667 -34.133335 33 30 22 
2.733333 -1.066667 -34.133335 32 28 20 
2.800000 -1.066667 -34.133335 32 26 19 
2.866667 -1.066667 -34.133335 32 26 19 
2.933333 -1.066667 -34.133335 31 25 22 
3.000000 -1.066667 -34.133335 32 26 23 
4.571429 -1.590062 -50.881989 32 25 27 
4.700000 -1.600000 -51.200001 32 25 27 
4.800000 -1.600000 -51.200001 32 32 32 
4.900000 -1.600000 -51.200001 51 51 51 
5.031446 -1.610063 -51.522011 65 78 65 
5.132075 -1.610063 -51.522011 80 94 80 
5.265823 -1.620253 -51.848103 85 102 85 
5.367089 -1.620253 -51.848103 57 74 57 
5.468354 -1.620253 -51.848103 9 18 3 
5.605095 -1.630573 -52.178345 16 25 10 
5.913043 -1.113043 -35.617390 156 97 69 
5.982609 -1.113043 -35.617390 167 98 72 
6.078603 -1.117904 -35.772926 170 102 75 
6.175438 -1.122807 -35.929825 169 107 81 
6.273128 -1.127753 -36.088104 170 109 82 
6.371681 -1.132743 -36.247787 169 109 82 
6.442478 -1.132743 -36.247787 169 109 82 
6.542222 -1.137778 -36.408890 171 107 76 
6.642857 -1.142857 -36.571430 171 107 76 
6.714286 -1.142857 -36.571430 174 104 73 
6.785714 -1.142857 -36.571430 172 102 71 
6.857143 -1.142857 -36.571430 170 100 67 
6.928571 -1.142857 -36.571430 166 96 63 
7.000000 -1.142857 -36.571430 160 93 66 
7.040000 -1.137778 -36.408890 158 92 65 
7.111111 -1.137778 -36.408890 155 88 67 
7.182222 -1.137778 -36.408890 151 84 64 
7.253334 -1.137778 -36.408890 154 82 75 
7.292036 -1.132743 -36.247787 154 82 75 
7.203463 -1.108225 -35.463203 153 83 77 
7.000000 -1.066667 -34.133335 156 86 80 
7.066667 -1.066667 -34.133335 156 90 75 
7.133333 -1.066667 -34.133335 153 87 73 
7.200000 -1.066667 -34.133335 156 90 62 
7.266667 -1.066667 -34.133335 155 89 61 
7.333333 -1.066667 -34.133335 155 91 51 
7.400000 -1.066667 -34.133335 154 90 50 
7.466667 -1.066667 -34.133335 148 83 48 
9.682052 -1.312821 -42.010258 133 66 43 
9.764103 -1.312821 -42.010258 104 37 14 
9.896907 -1.319588 -42.226803 75 11 0 
9.979382 -1.319588 -42.226803 163 100 85 
10.113990 -1.326425 -42.445595 172 139 114 
10.144330 -1.319588 -42.226803 189 157 131 
10.226804 -1.319588 -42.226803 181 155 132 
10.309278 -1.319588 -42.226803 184 158 135 
10.391752 -1.319588 -42.226803 203 174 157 
10.420513 -1.312821 -42.010258 146 117 100 
10.448979 -1.306122 -41.795918 61 33 11 
10.477158 -1.299492 -41.583755 148 119 97 
10.558375 -1.299492 -41.583755 152 131 106 
10.639594 -1.299492 -41.583755 161 140 116 
10.775510 -1.306122 -41.795918 174 153 130 
10.912821 -1.312821 -42.010258 180 159 136 
9.333333 -1.066667 -34.133335 190 158 142 
9.400000 -1.066667 -34.133335 192 161 144 
9.466666 -1.066667 -34.133335 186 152 134 
9.533334 -1.066667 -34.133335 177 144 126 
9.600000 -1.066667 -34.133335 162 129 111 
9.666667 -1.066667 -34.133335 157 123 105 
9.733334 -1.066667 -34.133335 155 126 106 
9.800000 -1.066667 -34.133335 153 125 105 
9.866667 -1.066667 -34.133335 161 135 123 
9.933333 -1.066667 -34.133335 168 142 130 
10.000000 -1.066667 -34.133335 169 148 139 
10.066667 -1.066667 -34.133335 171 150 141 
10.133333 -1.066667 -34.133335 173 154 147 
10.200000 -1.066667 -34.133335 174 155 148 
11.354838 -1.179724 -37.751152 178 154 146 
10.333333 -1.066667 -34.133335 179 155 147 
10.400000 -1.066667 -34.133335 183 156 149 
10.466666 -1.066667 -34.133335 184 158 151 
13.966851 -1.414365 -45.259670 184 158 149 
16.299999 -1.600000 -51.200001 186 162 145 
16.400000 -1.600000 -51.200001 187 160 144 
16.500000 -1.600000 -51.200001 183 156 140 
16.600000 -1.600000 -51.200001 178 151 138 
16.596273 -1.590062 -50.881989 180 152 139 
16.695652 -1.590062 -50.881989 179 156 141 
16.795031 -1.590062 -50.881989 181 158 143 
16.894409 -1.590062 -50.881989 176 123 114 
16.993790 -1.590062 -50.881989 124 71 61 
17.200001 -1.600000 -51.200001 148 33 31 
17.299999 -1.600000 -51.200001 152 36 34 
17.291925 -1.590062 -50.881989 168 20 22 
17.283951 -1.580247 -50.567902 167 19 21 
17.276073 -1.570552 -50.257668 178 17 25 
17.268293 -1.560976 -49.951218 176 16 24 
17.260607 -1.551515 -49.648483 180 18 34 
17.047619 -1.523810 -48.761906 183 21 37 
16.647398 -1.479769 -47.352600 186 15 34 
16.643679 -1.471264 -47.080460 183 11 30 
16.832371 -1.479769 -47.352600 186 8 27 
17.638554 -1.542169 -49.349396 185 7 26 
17.951220 -1.560976 -49.951218 184 8 15 
18.385094 -1.590062 -50.881989 183 6 14 
18.716982 -1.610063 -51.522011 184 8 11 
19.946667 -1.706667 -54.613335 184 8 11 
13.642858 -1.142857 -36.571430 195 32 42 
13.414847 -1.117904 -35.772926 222 74 83 
12.866667 -1.066667 -34.133335 198 51 60 
12.933333 -1.066667 -34.133335 165 15 25 
13.000000 -1.066667 -34.133335 165 15 25 
13.066667 -1.066667 -34.133335 181 18 39 
29.357798 -2.348624 -75.155960 204 58 60 
29.777779 -2.370370 -75.851852 205 59 61 
54.193550 -4.129032 -132.129028 194 34 36 
55.344261 -4.196721 -134.295074 186 26 28 
56.533333 -4.266667 -136.533340 164 15 18 
57.762711 -4.338983 -138.847458 200 51 54 
58.033897 -4.338983 -138.847458 210 127 116 
62.545456 -4.654545 -148.945450 197 115 104 
66.461540 -4.923077 -157.538467 143 140 114 
69.440002 -5.120000 -163.839996 143 140 114 
67.076920 -4.923077 -157.538467 136 143 118 
68.705879 -5.019608 -160.627457 135 142 117 
69.019608 -5.019608 -160.627457 135 143 120 
70.720001 -5.120000 -163.839996 134 142 119 
65.777779 -4.740741 -151.703705 132 143 119 
62.596493 -4.491228 -143.719299 132 143 119 
59.733334 -4.266667 -136.533340 131 142 117 
60.000000 -4.266667 -136.533340 131 142 117 
65.745453 -4.654545 -148.945450 131 142 117 
66.036362 -4.654545 -148.945450 131 142 117 
60.799999 -4.266667 -136.533340 128 141 116 
60.065575 -4.196721 -134.295074 128 141 116 
60.327869 -4.196721 -134.295074 127 140 115 
125.000000 -8.000000 -256.000000 123 133 111 
125.500000 -8.000000 -256.000000 122 132 110 
126.000000 -8.000000 -256.000000 120 131 109 
126.500000 -8.000000 -256.000000 120 131 109 
inf -inf -inf 121 128 110 
inf -inf -inf 121 128 110 
inf -inf -inf 118 130 110 
inf -inf -inf 118 130 110 
inf -inf -inf 118 130 110 
inf -inf -inf 118 130 110 
inf -inf -inf 118 130 110 
inf -inf -inf 116 129 109 
inf -inf -inf 114 126 106 
inf -inf -inf 113 125 105 
inf -inf -inf 113 126 103 
inf -inf -inf 113 126 103 
inf -inf -inf 113 126 103 
72.131149 -4.196721 -134.295074 112 122 103 
69.000000 -4.000000 -128.000000 107 124 105 
69.250000 -4.000000 -128.000000 107 124 105 
inf -inf -inf 105 117 99 
inf -inf -inf 105 117 99 
inf -inf -inf 104 116 98 
inf -inf -inf 104 116 98 
inf -inf -inf 104 115 100 
inf -inf -inf 104 115 100 
inf -inf -inf 105 114 100 
inf -inf -inf 105 114 100 
inf -inf -inf 104 111 98 
inf -inf -inf 103 110 96 
inf -inf -inf 101 110 95 
inf -inf -inf 99 109 94 
inf -inf -inf 97 108 93 
152.500000 -8.000000 -256.000000 94 108 94 
170.482758 -8.827586 -282.482758 94 106 89 
171.034485 -8.827586 -282.482758 93 105 89 
inf -inf -inf 92 104 88 
inf -inf -inf 95 102 86 
inf -inf -inf 94 101 85 
inf -inf -inf 93 101 80 
inf -inf -inf 93 101 80 
inf -inf -inf 91 102 76 
inf -inf -inf 90 101 75 
inf -inf -inf 89 99 78 
inf -inf -inf 89 99 78 
-inf -inf -inf 135 150 145 
-inf -inf -inf 135 150 145 
-inf -inf -inf 134 149 144 
-inf -inf -inf 137 149 145 
-inf -inf -inf 137 149 145 
-inf -inf -inf 137 149 145 
-inf -inf -inf 137 149 145 
-inf -inf -inf 137 149 143 
-inf -inf -inf 137 149 143 
-inf -inf -inf 137 149 143 
-inf -inf -inf 137 149 143 
-20.000000 -1.416667 -42.666668 138 153 141 
-19.916666 -1.416667 -42.666668 138 153 141 
-19.833334 -1.416667 -42.666668 138 153 143 
-19.750000 -1.416667 -42.666668 138 153 143 
-19.666666 -1.416667 -42.666668 139 152 143 
-15.133333 -1.133333 -34.133335 142 153 142 
-15.066667 -1.133333 -34.133335 141 152 141 
-15.000000 -1.133333 -34.133335 141 152 141 
-14.933333 -1.133333 -34.133335 142 153 142 
-14.866667 -1.133333 -34.133335 143 154 144 
-14.800000 -1.133333 -34.133335 143 154 144 
-14.733334 -1.133333 -34.133335 143 154 144 
-14.666667 -1.133333 -34.133335 143 154 146 
-14.600000 -1.133333 -34.133335 143 154 146 
-14.533334 -1.133333 -34.133335 143 154 144 
-14.466666 -1.133333 -34.133335 143 154 144 
-14.400000 -1.133333 -34.133335 144 155 145 
-14.333333 -1.133333 -34.133335 144 155 145 
-inf -inf -inf 146 154 145 
-inf -inf -inf 146 156 146 
-inf -inf -inf 146 156 146 
-inf -inf -inf 146 157 144 
-inf -inf -inf 146 157 144 
-inf -inf -inf 147 158 147 
-inf -inf -inf 146 156 146 
-inf -inf -inf 146 156 148 
-inf -inf -inf 147 157 149 
-inf -inf -inf 147 157 149 
-inf -inf -inf 147 157 149 
-inf -inf -inf 147 158 147 
-inf -inf -inf 147 158 147 
-inf -inf -inf 147 158 147 
-inf -inf -inf 149 158 146 
-inf -inf -inf 149 158 146 
-inf -inf -inf 149 160 147 
-inf -inf -inf 151 159 147 
-116.571426 -12.952381 -390.095245 151 159 147 
-78.451614 -8.774194 -264.258057 152 161 149 
-77.935486 -8.774194 -264.258057 152 161 149 
-75.000000 -8.500000 -256.000000 152 161 149 
-74.500000 -8.500000 -256.000000 152 161 149 
-11.767742 -1.754839 -52.851612 234 41 70 
-11.589744 -1.743590 -52.512821 238 44 73 
-11.341772 -1.721519 -51.848103 238 49 79 
-11.100000 -1.700000 -51.200001 242 52 82 
-10.931677 -1.689441 -50.881989 247 53 86 
-10.699387 -1.668712 -50.257668 247 53 86 
-10.472727 -1.648485 -49.648483 243 48 82 
-10.190476 -1.619048 -48.761906 220 26 60 
-9.803468 -1.572254 -47.352600 213 27 53 
-9.545455 -1.545455 -46.545456 219 33 59 
-9.244445 -1.511111 -45.511112 212 33 55 
-9.054945 -1.494506 -45.010990 219 40 62 
-8.869565 -1.478261 -44.521740 202 58 66 
-8.688172 -1.462366 -44.043011 202 58 66 
-8.510638 -1.446808 -43.574467 150 70 56 
-8.293194 -1.424084 -42.890053 155 75 61 
-8.166667 -1.416667 -42.666668 145 85 64 
-7.918367 -1.387755 -41.795918 145 85 64 
-7.718593 -1.366834 -41.165829 145 88 71 
-7.487685 -1.339901 -40.354679 145 88 71 
-7.336586 -1.326829 -39.960976 147 85 72 
-7.188406 -1.314010 -39.574879 148 86 73 
-7.076923 -1.307692 -39.384617 151 85 71 
-6.966507 -1.301435 -39.196171 151 85 71 
-6.824645 -1.289100 -38.824646 158 92 76 
-6.748815 -1.289100 -38.824646 166 100 84 
-6.704762 -1.295238 -39.009525 166 106 85 
-6.628572 -1.295238 -39.009525 159 99 78 
-6.521327 -1.289100 -38.824646 158 99 73 
-6.415094 -1.283019 -38.641510 155 95 70 
-6.193548 -1.253456 -37.751152 158 93 70 
-6.036364 -1.236364 -37.236362 160 96 72 
-5.909910 -1.225225 -36.900902 170 97 83 
-5.811659 -1.219731 -36.735428 172 99 85 
-5.663717 -1.203540 -36.247787 171 104 93 
-5.495652 -1.182609 -35.617390 174 108 96 
-5.426087 -1.182609 -35.617390 180 119 105 
-5.427313 -1.198238 -36.088104 173 112 98 
-5.380531 -1.203540 -36.247787 169 113 95 
-5.309734 -1.203540 -36.247787 171 115 98 
-5.215859 -1.198238 -36.088104 170 124 98 
-5.034483 -1.172414 -35.310345 179 133 108 
-4.800000 -1.133333 -34.133335 188 149 121 
-4.896552 -1.172414 -35.310345 190 152 124 
-4.977778 -1.208889 -36.408890 183 144 121 
-4.928571 -1.214286 -36.571430 186 146 123 
-4.857143 -1.214286 -36.571430 184 151 131 
-4.764444 -1.208889 -36.408890 193 159 139 
-4.693333 -1.208889 -36.408890 185 160 144 
-4.882629 -1.276995 -38.460094 185 160 144 
-4.923077 -1.307692 -39.384617 183 162 151 
-4.846154 -1.307692 -39.384617 182 161 150 
-4.862745 -1.333333 -40.156864 181 162 157 
-inf -inf -inf 41 26 22 
-0.293578 -2.495413 -75.155960 33 16 20 
-0.146789 -2.495413 -75.155960 35 19 22 
0.000000 -2.495413 -75.155960 37 22 31 
0.150943 -2.566038 -77.283020 34 18 28 
0.301887 -2.566038 -77.283020 49 37 41 
0.428571 -2.428571 -73.142860 77 65 69 
0.571429 -2.428571 -73.142860 68 52 50 
1.777778 -6.044445 -182.044449 66 51 49 
2.133333 -6.044445 -182.044449 61 50 47 
2.382979 -5.787234 -174.297867 61 50 47 
2.723404 -5.787234 -174.297867 56 52 51 
3.063830 -5.787234 -174.297867 56 52 51 
3.333333 -5.666667 -170.666672 51 51 49 
3.666667 -5.666667 -170.666672 48 49 46 
4.000000 -5.666667 -170.666672 47 48 45 
4.244898 -5.551021 -167.183670 46 46 44 
4.571429 -5.551021 -167.183670 46 47 42 
5.000000 -5.666667 -170.666672 45 46 41 
5.333333 -5.666667 -170.666672 47 41 37 
5.551021 -5.551021 -167.183670 47 41 37 
4.881356 -4.610169 -138.847458 46 40 37 
4.825397 -4.317461 -130.031754 44 37 35 
4.507042 -3.830986 -115.380280 42 37 39 
4.732394 -3.830986 -115.380280 41 36 38 
2.274510 -1.333333 -40.156864 39 35 32 
2.222222 -1.259259 -37.925926 35 33 29 
2.066667 -1.133333 -34.133335 35 33 29 
2.133333 -1.133333 -34.133335 35 31 30 
2.200000 -1.133333 -34.133335 35 31 30 
2.266667 -1.133333 -34.133335 32 30 29 
2.333333 -1.133333 -34.133335 34 32 30 
2.400000 -1.133333 -34.133335 32 32 30 
2.466667 -1.133333 -34.133335 31 31 29 
2.533333 -1.133333 -34.133335 30 31 24 
2.600000 -1.133333 -34.133335 30 31 24 
2.666667 -1.133333 -34.133335 32 28 20 
2.733333 -1.133333 -34.133335 32 28 20 
2.800000 -1.133333 -34.133335 33 28 20 
2.866667 -1.133333 -34.133335 33 28 20 
2.933333 -1.133333 -34.133335 32 26 23 
3.000000 -1.133333 -34.133335 32 26 23 
4.543210 -1.679012 -50.567902 31 24 26 
4.670807 -1.689441 -50.881989 32 25 27 
4.800000 -1.700000 -51.200001 32 32 32 
4.900000 -1.700000 -51.200001 47 47 47 
5.000000 -1.700000 -51.200001 68 82 68 
5.132075 -1.710692 -51.522011 81 95 81 
5.232705 -1.710692 -51.522011 86 103 86 
5.333333 -1.710692 -51.522011 60 76 59 
5.433962 -1.710692 -51.522011 14 24 9 
5.569620 -1.721519 -51.848103 20 29 15 
5.843478 -1.182609 -35.617390 158 99 71 
5.666667 -1.133333 -34.133335 158 99 71 
5.733333 -1.133333 -34.133335 167 98 72 
6.025974 -1.177489 -35.463203 168 100 73 
6.121739 -1.182609 -35.617390 162 100 74 
6.245614 -1.192982 -35.929825 164 103 76 
6.315790 -1.192982 -35.929825 166 107 79 
6.414097 -1.198238 -36.088104 168 108 81 
6.513274 -1.203540 -36.247787 172 109 78 
6.613333 -1.208889 -36.408890 170 106 75 
6.684444 -1.208889 -36.408890 174 104 73 
6.725664 -1.203540 -36.247787 173 103 72 
6.796460 -1.203540 -36.247787 173 103 70 
6.867257 -1.203540 -36.247787 170 100 67 
6.938053 -1.203540 -36.247787 163 97 69 
6.977973 -1.198238 -36.088104 160 93 66 
6.986899 -1.187773 -35.772926 156 89 68 
6.995671 -1.177489 -35.463203 151 84 64 
6.800000 -1.133333 -34.133335 152 80 73 
6.866667 -1.133333 -34.133335 148 77 69 
6.933333 -1.133333 -34.133335 146 76 70 
7.000000 -1.133333 -34.133335 151 82 76 
7.066667 -1.133333 -34.133335 151 85 71 
7.133333 -1.133333 -34.133335 156 90 75 
7.200000 -1.133333 -34.133335 160 93 66 
7.266667 -1.133333 -34.133335 160 93 66 
7.333333 -1.133333 -34.133335 164 100 60 
7.400000 -1.133333 -34.133335 170 106 66 
7.466667 -1.133333 -34.133335 164 99 64 
9.600000 -1.394872 -42.010258 134 73 44 
9.632653 -1.387755 -41.795918 136 69 46 
9.714286 -1.387755 -41.795918 104 37 14 
9.795918 -1.387755 -41.795918 70 7 0 
9.928205 -1.394872 -42.010258 177 114 99 
10.061855 -1.402062 -42.226803 184 152 127 
10.144330 -1.402062 -42.226803 193 160 135 
10.174359 -1.394872 -42.010258 181 155 132 
10.256411 -1.394872 -42.010258 184 158 135 
10.338462 -1.394872 -42.010258 205 175 158 
10.420513 -1.394872 -42.010258 159 130 113 
10.448979 -1.387755 -41.795918 92 63 41 
10.530612 -1.387755 -41.795918 153 125 103 
10.612245 -1.387755 -41.795918 156 134 110 
10.639594 -1.380711 -41.583755 164 143 118 
10.775510 -1.387755 -41.795918 180 159 136 
10.857142 -1.387755 -41.795918 183 162 140 
10.994872 -1.394872 -42.010258 179 155 138 
11.076923 -1.394872 -42.010258 179 155 138 
9.333333 -1.133333 -34.133335 192 161 144 
9.400000 -1.133333 -34.133335 191 160 143 
9.466666 -1.133333 -34.133335 190 157 139 
9.533334 -1.133333 -34.133335 181 147 129 
9.600000 -1.133333 -34.133335 174 140 122 
9.666667 -1.133333 -34.133335 170 137 119 
9.733334 -1.133333 -34.133335 163 134 114 
9.800000 -1.133333 -34.133335 157 128 108 
9.866667 -1.133333 -34.133335 157 132 120 
9.933333 -1.133333 -34.133335 163 138 126 
10.000000 -1.133333 -34.133335 168 146 138 
10.066667 -1.133333 -34.133335 170 149 140 
10.133333 -1.133333 -34.133335 172 153 146 
10.200000 -1.133333 -34.133335 173 154 147 
10.266666 -1.133333 -34.133335 178 154 146 
10.333333 -1.133333 -34.133335 182 158 151 
10.400000 -1.133333 -34.133335 191 165 158 
10.466666 -1.133333 -34.133335 186 160 153 
16.299999 -1.700000 -51.200001 191 166 150 
16.400000 -1.700000 -51.200001 188 161 145 
16.500000 -1.700000 -51.200001 181 154 138 
16.496895 -1.689441 -50.881989 173 145 132 
16.596273 -1.689441 -50.881989 171 144 131 
16.592592 -1.679012 -50.567902 169 147 132 
16.691359 -1.679012 -50.567902 175 153 138 
16.790123 -1.679012 -50.567902 189 136 127 
16.993790 -1.689441 -50.881989 136 82 73 
17.093168 -1.689441 -50.881989 152 36 34 
17.192547 -1.689441 -50.881989 150 34 32 
17.291925 -1.689441 -50.881989 167 19 21 
17.283951 -1.679012 -50.567902 166 18 20 
17.276073 -1.668712 -50.257668 175 14 23 
17.268293 -1.658537 -49.951218 174 13 22 
17.156626 -1.638554 -49.349396 179 17 33 
17.047619 -1.619048 -48.761906 186 24 40 
16.647398 -1.572254 -47.352600 187 16 35 
16.739885 -1.572254 -47.352600 178 6 26 
16.832371 -1.572254 -47.352600 185 7 26 
17.853659 -1.658537 -49.951218 186 8 27 
18.061350 -1.668712 -50.257668 189 12 19 
18.500000 -1.700000 -51.200001 186 10 17 
18.955414 -1.732484 -52.178345 183 7 10 
19.946667 -1.813333 -54.613335 183 7 10 
12.933333 -1.133333 -34.133335 194 44 54 
13.000000 -1.133333 -34.133335 166 16 26 
54.193550 -4.387097 -132.129028 194 34 36 
55.344261 -4.459016 -134.295074 180 20 22 
55.606556 -4.459016 -134.295074 164 15 18 
56.799999 -4.533333 -136.533340 197 49 51 
57.066666 -4.533333 -136.533340 211 128 118 
59.310345 -4.689655 -141.241379 197 115 104 
61.714287 -4.857143 -146.285721 143 140 114 
63.127274 -4.945455 -148.945450 143 140 114 
63.418182 -4.945455 -148.945450 136 143 118 
64.888885 -5.037037 -151.703705 136 143 118 
65.185188 -5.037037 -151.703705 135 143 120 
65.481483 -5.037037 -151.703705 132 141 117 
62.315788 -4.771930 -143.719299 132 143 119 
61.517242 -4.689655 -141.241379 132 143 119 
59.733334 -4.533333 -136.533340 132 143 119 
60.000000 -4.533333 -136.533340 132 143 119 
69.538460 -5.230769 -157.538467 131 142 117 
69.846153 -5.230769 -157.538467 130 140 116 
62.896553 -4.689655 -141.241379 128 141 116 
61.066666 -4.533333 -136.533340 128 141 116 
61.333332 -4.533333 -136.533340 128 141 116 
125.000000 -8.500000 -256.000000 122 132 110 
125.500000 -8.500000 -256.000000 123 133 111 
126.000000 -8.500000 -256.000000 122 132 110 
126.500000 -8.500000 -256.000000 120 131 109 
inf -inf -inf 122 130 111 
inf -inf -inf 121 128 110 
inf -inf -inf 118 130 110 
inf -inf -inf 118 130 110 
inf -inf -inf 118 130 110 
inf -inf -inf 118 130 110 
inf -inf -inf 118 130 110 
inf -inf -inf 116 129 109 
inf -inf -inf 115 128 108 
inf -inf -inf 114 126 106 
inf -inf -inf 114 127 104 
72.131149 -4.459016 -134.295074 112 122 103 
69.000000 -4.250000 -128.000000 107 124 105 
inf -inf -inf 105 117 99 
inf -inf -inf 105 117 99 
inf -inf -inf 105 117 99 
inf -inf -inf 104 116 98 
inf -inf -inf 104 115 100 
inf -inf -inf 104 115 100 
inf -inf -inf 105 114 100 
inf -inf -inf 104 113 99 
inf -inf -inf 104 111 98 
inf -inf -inf 104 111 98 
inf -inf -inf 101 110 95 
inf -inf -inf 101 110 95 
inf -inf -inf 99 111 95 
152.500000 -8.500000 -256.000000 95 109 95 
inf -inf -inf 94 106 91 
inf -inf -inf 96 104 87 
inf -inf -inf 94 101 85 
inf -inf -inf 93 101 80 
inf -inf -inf 93 101 80 
inf -inf -inf 91 102 76 
inf -inf -inf 90 101 75 
inf -inf -inf 90 101 79 
inf -inf -inf 90 101 79 
-inf -inf -inf 135 150 145 
-inf -inf -inf 135 150 145 
-inf -inf -inf 135 150 145 
-inf -inf -inf 135 150 145 
-inf -inf -inf 137 149 145 
-inf -inf -inf 137 149 145 
-inf -inf -inf 137 149 145 
-inf -inf -inf 137 149 145 
-inf -inf -inf 137 149 143 
-inf -inf -inf 138 151 144 
-inf -inf -inf 137 149 143 
-inf -inf -inf 138 151 144 
-20.379889 -1.608939 -45.765362 142 153 142 
-15.133333 -1.200000 -34.133335 142 153 142 
-15.066667 -1.200000 -34.133335 142 152 146 
-15.000000 -1.200000 -34.133335 143 153 148 
-14.933333 -1.200000 -34.133335 143 153 148 
-14.866667 -1.200000 -34.133335 143 153 148 
-14.800000 -1.200000 -34.133335 143 154 144 
-14.733334 -1.200000 -34.133335 143 154 144 
-14.666667 -1.200000 -34.133335 144 156 143 
-14.600000 -1.200000 -34.133335 144 156 143 
-14.533334 -1.200000 -34.133335 144 156 143 
-14.466666 -1.200000 -34.133335 146 157 144 
-14.400000 -1.200000 -34.133335 144 155 145 
-inf -inf -inf 145 158 147 
-inf -inf -inf 145 158 147 
-inf -inf -inf 145 158 147 
-inf -inf -inf 146 159 150 
-inf -inf -inf 146 159 150 
-inf -inf -inf 147 158 147 
-inf -inf -inf 147 158 147 
-inf -inf -inf 149 160 147 
-inf -inf -inf 149 160 147 
-inf -inf -inf 149 160 147 
-inf -inf -inf 150 161 149 
-inf -inf -inf 149 160 147 
-inf -inf -inf 149 160 147 
-inf -inf -inf 150 161 149 
-inf -inf -inf 150 161 149 
-inf -inf -inf 150 161 149 
-163.199997 -19.200001 -546.133362 150 161 149 
-115.809525 -13.714286 -390.095245 153 162 150 
-89.481483 -10.666667 -303.407410 152 161 149 
-77.419357 -9.290322 -264.258057 152 161 149 
-76.903229 -9.290322 -264.258057 153 162 150 
-36.250000 -4.500000 -128.000000 151 162 152 
-35.446156 -4.430769 -126.030769 151 162 152 
-23.130434 -3.130435 -89.043480 153 163 153 
-22.956522 -3.130435 -89.043480 158 162 156 
-11.948052 -1.870130 -53.194805 231 36 63 
-11.692307 -1.846154 -52.512821 229 38 64 
-11.443038 -1.822785 -51.848103 241 50 76 
-11.200000 -1.800000 -51.200001 233 52 73 
-11.031055 -1.788820 -50.881989 239 58 78 
-10.797546 -1.766871 -50.257668 228 47 65 
-10.634147 -1.756098 -49.951218 228 47 65 
-10.409638 -1.734940 -49.349396 227 37 67 
-10.011696 -1.684211 -47.906433 211 22 52 
-9.747127 -1.655172 -47.080460 216 28 64 
-9.545455 -1.636364 -46.545456 219 31 67 
-9.193370 -1.591160 -45.259670 213 40 69 
-8.956522 -1.565217 -44.521740 229 56 85 
-8.774194 -1.548387 -44.043011 195 53 60 
-8.641711 -1.540107 -43.807487 196 54 61 
-8.510638 -1.531915 -43.574467 163 70 54 
-8.293194 -1.507853 -42.890053 164 71 55 
-8.124352 -1.492228 -42.445595 141 81 54 
-7.918367 -1.469388 -41.795918 147 87 60 
-7.680000 -1.440000 -40.959999 143 90 67 
-7.450980 -1.411765 -40.156864 144 91 68 
-7.300971 -1.398058 -39.766991 146 87 71 
-7.153846 -1.384615 -39.384617 148 90 73 
-7.076923 -1.384615 -39.384617 150 83 74 
-6.966507 -1.377990 -39.196171 152 85 76 
-6.824645 -1.364929 -38.824646 161 91 83 
-6.748815 -1.364929 -38.824646 162 93 84 
-6.704762 -1.371429 -39.009525 161 99 84 
-6.628572 -1.371429 -39.009525 162 100 85 
-6.521327 -1.364929 -38.824646 154 95 79 
-6.445498 -1.364929 -38.824646 153 94 78 
-6.369668 -1.364929 -38.824646 158 92 76 
-6.091743 -1.321101 -37.577980 161 96 79 
-5.936652 -1.303167 -37.067875 173 101 84 
-5.811659 -1.291480 -36.735428 177 104 88 
-5.714286 -1.285714 -36.571430 176 109 86 
-5.495652 -1.252174 -35.617390 177 110 87 
-5.426087 -1.252174 -35.617390 176 115 97 
-5.427313 -1.268722 -36.088104 171 110 92 
-5.428571 -1.285714 -36.571430 165 109 94 
-5.357143 -1.285714 -36.571430 171 115 100 
-5.262222 -1.280000 -36.408890 170 122 104 
-5.122807 -1.263158 -35.929825 172 125 107 
-5.030568 -1.257642 -35.772926 178 141 117 
-5.026549 -1.274336 -36.247787 179 142 118 
-5.000000 -1.285714 -36.571430 167 137 108 
-4.950673 -1.291480 -36.735428 168 138 110 
-4.857143 -1.285714 -36.571430 172 144 119 
-4.785714 -1.285714 -36.571430 186 158 133 
-4.714286 -1.285714 -36.571430 182 160 143 
-4.748858 -1.315068 -37.406391 182 160 143 
-4.807512 -1.352113 -38.460094 182 160 152 
-4.754717 -1.358491 -38.641510 180 158 149 
-4.701422 -1.364929 -38.824646 181 159 155 
-2.000000 -1.200000 -34.133335 156 73 67 
-1.933333 -1.200000 -34.133335 155 72 66 
-0.448598 -2.691589 -76.560745 36 18 15 
-0.296296 -2.666667 -75.851852 34 17 21 
-0.146789 -2.642202 -75.155960 35 19 22 
0.000000 -2.666667 -75.851852 35 20 27 
0.149533 -2.691589 -76.560745 34 19 26 
0.299065 -2.691589 -76.560745 52 37 45 
0.428571 -2.571429 -73.142860 81 66 74 
0.571429 -2.571429 -73.142860 70 52 56 
1.702128 -6.127660 -174.297867 69 50 54 
2.042553 -6.127660 -174.297867 62 52 46 
2.382979 -6.127660 -174.297867 62 52 46 
2.666667 -6.000000 -170.666672 55 53 47 
3.000000 -6.000000 -170.666672 53 52 46 
3.333333 -6.000000 -170.666672 52 51 47 
3.666667 -6.000000 -170.666672 51 49 45 
4.000000 -6.000000 -170.666672 50 48 44 
4.244898 -5.877551 -167.183670 49 47 43 
4.571429 -5.877551 -167.183670 46 46 37 
5.000000 -6.000000 -170.666672 45 44 36 
5.333333 -6.000000 -170.666672 46 42 34 
5.551021 -5.877551 -167.183670 46 42 34 
4.881356 -4.881356 -138.847458 46 40 37 
4.750000 -4.500000 -128.000000 45 38 36 
4.383562 -3.945205 -112.219177 44 37 39 
4.540541 -3.891892 -110.702705 44 37 39 
2.274510 -1.411765 -40.156864 39 35 32 
2.191781 -1.315068 -37.406391 36 32 29 
2.066667 -1.200000 -34.133335 35 31 28 
2.133333 -1.200000 -34.133335 34 32 28 
2.200000 -1.200000 -34.133335 34 32 28 
2.266667 -1.200000 -34.133335 32 33 28 
2.333333 -1.200000 -34.133335 32 33 28 
2.400000 -1.200000 -34.133335 34 32 26 
2.466667 -1.200000 -34.133335 32 31 25 
2.533333 -1.200000 -34.133335 33 29 24 
2.600000 -1.200000 -34.133335 33 29 24 
2.666667 -1.200000 -34.133335 33 27 23 
2.733333 -1.200000 -34.133335 33 27 23 
2.800000 -1.200000 -34.133335 33 27 23 
2.866667 -1.200000 -34.133335 33 27 23 
2.933333 -1.200000 -34.133335 33 28 20 
3.000000 -1.200000 -34.133335 33 28 20 
4.543210 -1.777778 -50.567902 32 26 21 
4.670807 -1.788820 -50.881989 33 27 23 
4.800000 -1.800000 -51.200001 36 36 34 
4.900000 -1.800000 -51.200001 52 52 50 
5.000000 -1.800000 -51.200001 66 83 77 
5.100000 -1.800000 -51.200001 77 94 88 
5.232705 -1.811321 -51.522011 82 103 96 
5.333333 -1.811321 -51.522011 61 82 75 
5.433962 -1.811321 -51.522011 21 39 28 
5.569620 -1.822785 -51.848103 17 35 25 
5.600000 -1.200000 -34.133335 156 95 77 
5.666667 -1.200000 -34.133335 157 96 78 
5.733333 -1.200000 -34.133335 164 98 72 
5.800000 -1.200000 -34.133335 168 101 76 
5.866667 -1.200000 -34.133335 166 102 74 
6.164502 -1.246753 -35.463203 165 101 73 
6.288209 -1.257642 -35.772926 166 102 74 
6.358078 -1.257642 -35.772926 170 106 77 
6.456141 -1.263158 -35.929825 169 108 79 
6.555066 -1.268722 -36.088104 169 108 79 
6.654867 -1.274336 -36.247787 172 106 79 
6.696035 -1.268722 -36.088104 170 104 76 
6.736842 -1.263158 -35.929825 169 101 74 
6.807017 -1.263158 -35.929825 168 100 73 
6.877193 -1.263158 -35.929825 166 97 70 
6.886957 -1.252174 -35.617390 165 96 69 
6.666667 -1.200000 -34.133335 161 92 68 
6.733333 -1.200000 -34.133335 153 84 60 
6.800000 -1.200000 -34.133335 151 79 62 
6.866667 -1.200000 -34.133335 149 76 60 
6.933333 -1.200000 -34.133335 147 76 66 
7.000000 -1.200000 -34.133335 140 69 59 
7.066667 -1.200000 -34.133335 140 71 58 
7.133333 -1.200000 -34.133335 156 88 74 
7.200000 -1.200000 -34.133335 156 97 69 
7.266667 -1.200000 -34.133335 158 99 71 
7.333333 -1.200000 -34.133335 158 103 62 
7.400000 -1.200000 -34.133335 157 102 61 
7.466667 -1.200000 -34.133335 156 98 52 
7.533333 -1.200000 -34.133335 153 94 48 
9.421320 -1.461929 -41.583755 147 87 48 
9.502538 -1.461929 -41.583755 139 79 40 
9.583756 -1.461929 -41.583755 136 71 38 
9.664974 -1.461929 -41.583755 104 38 6 
9.795918 -1.469388 -41.795918 98 38 11 
9.928205 -1.476923 -42.010258 209 150 122 
10.061855 -1.484536 -42.226803 196 169 144 
10.144330 -1.484536 -42.226803 186 158 133 
10.226804 -1.484536 -42.226803 181 155 134 
10.256411 -1.476923 -42.010258 183 157 136 
10.391752 -1.484536 -42.226803 196 168 146 
10.474227 -1.484536 -42.226803 135 106 84 
10.502564 -1.476923 -42.010258 74 47 20 
10.530612 -1.469388 -41.795918 155 127 100 
10.612245 -1.469388 -41.795918 159 138 113 
10.693877 -1.469388 -41.795918 168 147 123 
10.775510 -1.469388 -41.795918 182 162 146 
10.857142 -1.469388 -41.795918 183 163 147 
10.994872 -1.476923 -42.010258 181 154 138 
10.964467 -1.461929 -41.583755 181 154 138 
11.045685 -1.461929 -41.583755 181 152 135 
9.400000 -1.200000 -34.133335 188 158 146 
9.466666 -1.200000 -34.133335 185 158 143 
9.533334 -1.200000 -34.133335 181 154 138 
9.600000 -1.200000 -34.133335 181 153 133 
9.666667 -1.200000 -34.133335 174 146 126 
9.733334 -1.200000 -34.133335 166 138 116 
9.800000 -1.200000 -34.133335 163 134 112 
9.866667 -1.200000 -34.133335 165 135 120 
9.933333 -1.200000 -34.133335 165 135 120 
10.000000 -1.200000 -34.133335 168 140 131 
10.066667 -1.200000 -34.133335 170 142 133 
10.133333 -1.200000 -34.133335 166 143 132 
10.200000 -1.200000 -34.133335 169 146 136 
10.266666 -1.200000 -34.133335 174 151 138 
10.333333 -1.200000 -34.133335 178 155 142 
10.400000 -1.200000 -34.133335 185 155 142 
13.361702 -1.531915 -43.574467 179 149 136 
16.299999 -1.800000 -51.200001 180 155 141 
16.400000 -1.800000 -51.200001 167 144 131 
16.397516 -1.788820 -50.881989 159 136 123 
16.496895 -1.788820 -50.881989 161 138 126 
16.493828 -1.777778 -50.567902 166 143 130 
16.592592 -1.777778 -50.567902 169 146 134 
16.588957 -1.766871 -50.257668 162 139 127 
16.687117 -1.766871 -50.257668 174 127 120 
16.785276 -1.766871 -50.257668 130 83 76 
16.883436 -1.766871 -50.257668 148 38 43 
17.086420 -1.777778 -50.567902 144 33 39 
17.185184 -1.777778 -50.567902 169 16 31 
17.177914 -1.766871 -50.257668 170 17 32 
17.170732 -1.756098 -49.951218 175 15 32 
17.163637 -1.745455 -49.648483 176 16 34 
17.053892 -1.724551 -49.053894 179 17 31 
16.847059 -1.694118 -48.188236 181 19 33 
16.647398 -1.664740 -47.352600 184 16 25 
16.739885 -1.664740 -47.352600 177 9 18 
16.832371 -1.664740 -47.352600 184 9 20 
17.853659 -1.756098 -49.951218 184 9 20 
