ply
format ascii 1.0
element vertex 1162
property float x
property float y
property float z
property uchar red
property uchar green
property uchar blue
end_header
0.689189 1.626126 -2.688288 132 118 102 
0.698198 1.626126 -2.688288 133 119 104 
0.707207 1.626126 -2.688288 133 120 104 
0.716216 1.626126 -2.688288 134 120 107 
0.725225 1.626126 -2.688288 134 120 107 
0.734234 1.626126 -2.688288 132 121 107 
0.743243 1.626126 -2.688288 131 120 105 
0.752252 1.626126 -2.688288 132 121 105 
0.761261 1.626126 -2.688288 133 119 104 
0.770270 1.626126 -2.688288 133 119 105 
0.779279 1.626126 -2.688288 132 118 104 
0.788288 1.626126 -2.688288 132 118 104 
7.218750 11.281250 -18.650000 127 118 105 
7.281250 11.281250 -18.650000 128 117 105 
7.343750 11.281250 -18.650000 128 117 105 
7.406250 11.281250 -18.650000 128 118 105 
7.468750 11.281250 -18.650000 127 118 106 
7.531250 11.281250 -18.650000 125 120 106 
7.593750 11.281250 -18.650000 125 121 106 
7.656250 11.281250 -18.650000 124 121 101 
7.428571 10.857142 -17.948872 124 121 101 
7.377778 10.696297 -17.682962 123 119 100 
7.382353 10.617647 -17.552940 123 119 100 
7.441176 10.617647 -17.552940 123 119 101 
7.500000 10.617647 -17.552940 124 119 101 
7.558824 10.617647 -17.552940 126 117 101 
7.507246 10.463768 -17.298550 125 117 100 
7.483871 10.351254 -17.112545 126 118 99 
7.382456 10.133333 -16.752281 125 119 98 
6.388060 7.184080 -11.876616 122 117 103 
6.427861 7.184080 -11.876616 122 117 104 
6.467662 7.184080 -11.876616 120 118 105 
6.507463 7.184080 -11.876616 119 118 105 
6.531017 7.166253 -11.847146 119 118 105 
6.570720 7.166253 -11.847146 120 118 103 
6.610422 7.166253 -11.847146 120 118 103 
6.650124 7.166253 -11.847146 120 118 103 
6.706468 7.184080 -11.876616 117 120 101 
6.746269 7.184080 -11.876616 117 120 102 
6.820000 7.220000 -11.936000 117 120 103 
6.860000 7.220000 -11.936000 119 119 103 
6.934673 7.256281 -11.995979 119 118 104 
6.992444 7.274559 -12.026196 120 118 105 
7.177378 7.424164 -12.273521 120 118 105 
7.255814 7.462533 -12.336950 120 118 104 
7.373368 7.540470 -12.465796 119 119 103 
7.473684 7.600000 -12.564210 119 119 101 
-1.180198 2.843564 -4.727129 117 109 89 
-1.164356 2.843564 -4.727129 118 108 89 
-1.148515 2.843564 -4.727129 121 108 90 
-1.131553 2.840752 -4.722453 120 107 89 
-1.115727 2.840752 -4.722453 120 109 90 
-1.099901 2.840752 -4.722453 118 110 88 
-0.743056 2.493056 -4.144444 120 112 94 
-0.664557 2.272152 -3.777215 122 111 94 
-0.650869 2.268562 -3.771248 122 110 93 
-0.638231 2.268562 -3.771248 122 109 91 
-0.625099 2.266772 -3.768271 122 109 91 
-0.611987 2.264984 -3.765300 122 109 92 
-0.598425 2.261417 -3.759370 123 110 94 
-0.586288 2.263199 -3.762332 122 109 93 
-0.146650 1.815423 -3.017952 127 114 96 
-0.136450 1.814277 -3.016045 126 114 96 
-0.126342 1.814277 -3.016045 125 115 96 
-0.116235 1.814277 -3.016045 127 116 97 
-0.106128 1.814277 -3.016045 126 115 97 
-0.096020 1.814277 -3.016045 126 115 98 
-0.085913 1.814277 -3.016045 127 116 99 
-0.075805 1.814277 -3.016045 127 116 99 
-0.065698 1.814277 -3.016045 128 115 97 
-0.055626 1.815423 -3.017952 128 115 97 
-0.045512 1.815423 -3.017952 128 115 97 
0.070700 1.952413 -3.245683 127 116 97 
0.081577 1.952413 -3.245683 127 116 97 
0.092517 1.953742 -3.247891 128 116 95 
0.103401 1.953742 -3.247891 128 116 95 
0.114130 1.951087 -3.243478 129 117 96 
0.125000 1.951087 -3.243478 129 117 96 
0.135777 1.949762 -3.241276 128 118 95 
0.146540 1.948440 -3.239077 128 118 94 
0.157395 1.948440 -3.239077 127 120 95 
0.168250 1.948440 -3.239077 128 119 97 
0.178018 1.936615 -3.219420 128 117 98 
0.253230 1.855297 -3.084238 131 119 104 
0.263226 1.852903 -3.080258 131 117 103 
0.273372 1.851709 -3.078272 129 118 103 
0.283323 1.849324 -3.074308 130 119 103 
0.293248 1.846945 -3.070354 130 119 100 
0.303147 1.844573 -3.066410 130 119 100 
0.313222 1.843389 -3.064441 129 118 99 
0.322663 1.838668 -3.056594 129 118 99 
0.332481 1.836317 -3.052685 127 119 99 
0.342711 1.836317 -3.052685 128 120 101 
0.353619 1.839846 -3.058552 128 120 102 
0.363171 1.836317 -3.052685 128 120 104 
0.519874 1.811987 -3.012240 130 121 102 
0.529634 1.810845 -3.010340 130 121 106 
0.539043 1.808564 -3.006549 131 120 106 
0.549118 1.808564 -3.006549 131 120 106 
0.559194 1.808564 -3.006549 130 119 105 
0.554054 1.617117 -2.688288 132 122 103 
0.563063 1.617117 -2.688288 131 121 102 
0.572072 1.617117 -2.688288 131 121 102 
0.608108 1.617117 -2.688288 133 119 106 
0.617117 1.617117 -2.688288 133 119 106 
0.626126 1.617117 -2.688288 133 119 106 
0.635135 1.617117 -2.688288 131 120 104 
0.644144 1.617117 -2.688288 131 119 102 
0.653153 1.617117 -2.688288 133 120 102 
0.662162 1.617117 -2.688288 133 120 102 
0.671171 1.617117 -2.688288 132 120 102 
0.680180 1.617117 -2.688288 130 121 102 
0.689189 1.617117 -2.688288 130 121 104 
0.698198 1.617117 -2.688288 130 121 105 
0.707207 1.617117 -2.688288 130 120 108 
0.716216 1.617117 -2.688288 131 121 109 
0.725225 1.617117 -2.688288 131 121 109 
0.734234 1.617117 -2.688288 130 120 108 
0.743243 1.617117 -2.688288 131 121 106 
0.752252 1.617117 -2.688288 131 120 104 
0.761261 1.617117 -2.688288 131 121 102 
0.770270 1.617117 -2.688288 131 120 103 
4.332378 8.229226 -13.680229 127 121 100 
4.378223 8.229226 -13.680229 128 122 101 
4.436781 8.252873 -13.719540 127 121 100 
4.495677 8.276657 -13.759077 127 121 101 
4.541787 8.276657 -13.759077 128 120 102 
4.574713 8.252873 -13.719540 129 121 103 
4.594285 8.205714 -13.641143 128 120 101 
4.626781 8.182336 -13.602279 128 120 100 
4.672365 8.182336 -13.602279 127 119 99 
7.343750 11.218750 -18.650000 126 119 103 
7.406250 11.218750 -18.650000 126 119 103 
7.468750 11.218750 -18.650000 126 119 103 
7.531250 11.218750 -18.650000 125 120 104 
7.593750 11.218750 -18.650000 125 121 106 
7.368421 10.796992 -17.948872 124 120 105 
7.318519 10.637037 -17.682962 124 120 105 
7.296703 10.520146 -17.488644 123 118 104 
7.301818 10.443636 -17.361454 123 118 104 
7.360000 10.443636 -17.361454 124 118 104 
7.391304 10.405797 -17.298550 125 118 104 
7.449275 10.405797 -17.298550 128 116 104 
7.507246 10.405797 -17.298550 128 116 103 
6.388060 7.144279 -11.876616 122 117 103 
6.427861 7.144279 -11.876616 121 117 103 
6.451613 7.126551 -11.847146 120 118 105 
6.491315 7.126551 -11.847146 120 118 105 
6.531017 7.126551 -11.847146 120 118 104 
6.570720 7.126551 -11.847146 120 117 103 
6.610422 7.126551 -11.847146 119 117 102 
6.650124 7.126551 -11.847146 119 117 102 
6.706468 7.144279 -11.876616 118 119 102 
6.746269 7.144279 -11.876616 117 119 103 
6.820000 7.180000 -11.936000 117 119 103 
6.877193 7.197995 -11.965915 117 117 102 
6.952141 7.234257 -12.026196 117 116 103 
7.010101 7.252525 -12.056565 119 116 104 
7.177378 7.383033 -12.273521 119 117 103 
7.255814 7.421189 -12.336950 119 117 103 
7.373368 7.498694 -12.465796 118 117 102 
7.454068 7.538058 -12.531234 118 117 103 
-1.179031 2.824926 -4.722453 121 108 90 
-1.163205 2.824926 -4.722453 121 108 90 
-1.147379 2.824926 -4.722453 121 108 90 
-1.131553 2.824926 -4.722453 121 108 90 
-1.115727 2.824926 -4.722453 121 108 92 
-1.099901 2.824926 -4.722453 120 109 91 
-0.677215 2.259494 -3.777215 121 110 92 
-0.663507 2.255924 -3.771248 121 112 93 
-0.650355 2.254144 -3.768271 120 111 92 
-0.637727 2.254144 -3.768271 120 110 91 
-0.624606 2.252366 -3.765300 121 110 94 
-0.611024 2.248819 -3.759370 121 110 95 
-0.598425 2.248819 -3.759370 121 110 95 
-0.585827 2.248819 -3.759370 121 109 94 
-0.573680 2.250591 -3.762332 123 111 95 
-0.562846 2.257708 -3.774229 123 110 93 
-0.550198 2.257708 -3.774229 123 110 92 
-0.146743 1.806452 -3.019861 127 114 94 
-0.136450 1.804169 -3.016045 127 115 95 
-0.126342 1.804169 -3.016045 126 115 95 
-0.116308 1.805310 -3.017952 127 115 96 
-0.106195 1.805310 -3.017952 126 114 97 
-0.096081 1.805310 -3.017952 125 114 99 
-0.085967 1.805310 -3.017952 126 115 99 
-0.075853 1.805310 -3.017952 127 116 99 
-0.065740 1.805310 -3.017952 128 115 99 
0.070318 1.931034 -3.228127 127 116 96 
0.081191 1.932341 -3.230311 127 116 96 
0.092016 1.932341 -3.230311 128 117 96 
0.102981 1.934959 -3.234688 128 117 96 
0.113821 1.934959 -3.234688 128 117 96 
0.124661 1.934959 -3.234688 128 117 96 
0.135501 1.934959 -3.234688 128 118 95 
0.146242 1.933649 -3.232498 129 119 95 
0.156863 1.931034 -3.228127 127 119 96 
0.167681 1.931034 -3.228127 128 118 97 
0.177778 1.923232 -3.215084 128 117 98 
0.188806 1.925826 -3.219420 131 117 101 
0.254711 1.855750 -3.102274 131 118 103 
0.263396 1.843770 -3.082247 131 117 102 
0.273372 1.841393 -3.078272 130 118 102 
0.283323 1.839021 -3.074308 131 119 101 
0.293248 1.836656 -3.070354 130 118 99 
0.302758 1.831944 -3.062476 130 119 99 
0.312420 1.828425 -3.056594 130 119 99 
0.322045 1.824920 -3.050735 129 119 99 
0.332268 1.824920 -3.050735 128 120 99 
0.342711 1.826087 -3.052685 128 120 100 
0.352941 1.826087 -3.052685 129 120 101 
0.362939 1.824920 -3.050735 129 120 102 
0.372925 1.823755 -3.048787 130 120 104 
0.383142 1.823755 -3.048787 129 119 103 
0.393359 1.823755 -3.048787 130 119 102 
0.403576 1.823755 -3.048787 130 119 102 
0.443878 1.821429 -3.044898 131 120 99 
0.454082 1.821429 -3.044898 131 120 98 
0.510746 1.805310 -3.017952 129 121 101 
0.520202 1.803030 -3.014141 129 121 101 
0.529968 1.801893 -3.012240 129 121 104 
0.539723 1.800757 -3.010340 130 120 104 
0.549118 1.798489 -3.006549 130 119 102 
0.558842 1.797357 -3.004657 131 120 105 
0.568911 1.797357 -3.004657 131 120 105 
0.579710 1.799622 -3.008444 131 120 104 
0.635135 1.608108 -2.688288 130 119 102 
0.644144 1.608108 -2.688288 131 119 102 
0.653153 1.608108 -2.688288 131 119 100 
0.662162 1.608108 -2.688288 132 120 100 
0.671171 1.608108 -2.688288 131 120 100 
0.680180 1.608108 -2.688288 130 121 101 
0.689189 1.608108 -2.688288 129 121 101 
0.698198 1.608108 -2.688288 130 121 102 
0.707207 1.608108 -2.688288 130 120 105 
4.093567 8.350877 -13.960234 130 119 104 
4.092485 8.254335 -13.798843 131 118 103 
4.150724 8.278261 -13.838840 131 119 104 
4.240688 8.183381 -13.680229 128 120 101 
4.274286 8.160000 -13.641143 127 119 99 
4.307693 8.136752 -13.602279 127 120 99 
4.353276 8.136752 -13.602279 127 120 99 
4.424069 8.183381 -13.680229 128 120 100 
4.482759 8.206897 -13.719540 128 120 102 
4.528736 8.206897 -13.719540 128 119 104 
4.548572 8.160000 -13.641143 127 119 104 
4.581197 8.136752 -13.602279 127 120 103 
4.626781 8.136752 -13.602279 127 120 101 
4.659091 8.113636 -13.563636 127 119 101 
4.704545 8.113636 -13.563636 124 115 97 
7.593750 11.156250 -18.650000 126 119 108 
7.232472 10.538745 -17.617712 124 119 108 
7.159420 10.347826 -17.298550 123 118 106 
7.063830 10.127660 -16.930496 122 117 105 
7.095407 10.091873 -16.870670 123 116 103 
7.052265 9.951220 -16.635540 123 116 103 
7.157895 10.021052 -16.752281 125 118 104 
6.491315 7.086849 -11.847146 121 116 102 
6.531017 7.086849 -11.847146 121 116 102 
6.570720 7.086849 -11.847146 121 116 102 
6.610422 7.086849 -11.847146 118 115 102 
6.650124 7.086849 -11.847146 118 115 102 
6.706468 7.104477 -11.876616 118 115 102 
6.763092 7.122194 -11.906234 116 115 102 
6.820000 7.140000 -11.936000 115 115 102 
6.877193 7.157895 -11.965915 115 115 101 
6.969697 7.212121 -12.056565 115 113 100 
7.010101 7.212121 -12.056565 115 113 100 
7.195876 7.360825 -12.305155 117 115 100 
7.293507 7.418182 -12.401039 116 114 99 
7.373368 7.456919 -12.465796 115 113 98 
7.454068 7.496063 -12.531234 115 112 102 
-1.179031 2.809100 -4.722453 120 109 90 
-1.163205 2.809100 -4.722453 120 109 90 
-1.147379 2.809100 -4.722453 119 108 89 
-1.131553 2.809100 -4.722453 121 108 90 
-1.115727 2.809100 -4.722453 121 108 91 
-1.100990 2.811881 -4.727129 120 109 90 
-0.676680 2.245059 -3.774229 121 110 91 
-0.662983 2.241515 -3.768271 120 112 92 
-0.650355 2.241515 -3.768271 120 112 92 
-0.637224 2.239748 -3.765300 121 112 92 
-0.624606 2.239748 -3.765300 122 113 97 
-0.611024 2.236220 -3.759370 120 111 96 
-0.598425 2.236220 -3.759370 119 110 95 
-0.585827 2.236220 -3.759370 121 109 95 
-0.573680 2.237983 -3.762332 121 109 95 
-0.561957 2.241515 -3.768271 122 109 93 
-0.550198 2.245059 -3.774229 122 109 91 
-0.537549 2.245059 -3.774229 122 109 91 
-0.136709 1.797468 -3.021772 127 115 92 
-0.126582 1.797468 -3.021772 127 115 92 
-0.116456 1.797468 -3.021772 127 114 96 
-0.106329 1.797468 -3.021772 127 115 98 
-0.096142 1.796331 -3.019861 126 115 101 
-0.086076 1.797468 -3.021772 124 115 100 
0.070223 1.917623 -3.223768 127 116 95 
0.081081 1.918919 -3.225946 128 117 96 
0.091830 1.917623 -3.223768 126 118 96 
0.102842 1.921516 -3.230311 127 117 95 
0.113821 1.924119 -3.234688 127 116 95 
0.124661 1.924119 -3.234688 128 117 96 
0.135501 1.924119 -3.234688 128 118 96 
0.146242 1.922817 -3.232498 128 118 96 
0.156969 1.921516 -3.230311 129 118 99 
0.167681 1.920216 -3.228127 129 117 98 
0.177778 1.912458 -3.215084 130 117 99 
0.254876 1.846554 -3.104291 131 117 101 
0.263566 1.834625 -3.084238 130 116 100 
0.273548 1.832258 -3.080258 131 118 99 
0.283323 1.828719 -3.074308 132 119 99 
0.293625 1.828719 -3.074308 132 119 98 
0.302758 1.821681 -3.062476 132 119 98 
0.312420 1.818182 -3.056594 130 118 97 
0.322045 1.814696 -3.050735 129 119 97 
0.332268 1.814696 -3.050735 128 121 98 
0.342492 1.814696 -3.050735 129 121 98 
0.352716 1.814696 -3.050735 130 120 98 
0.362476 1.812380 -3.046841 130 119 100 
0.372687 1.812380 -3.046841 130 119 100 
0.382897 1.812380 -3.046841 128 120 102 
0.393108 1.812380 -3.046841 129 119 102 
0.403061 1.811224 -3.044898 130 119 102 
0.413265 1.811224 -3.044898 132 118 102 
0.423469 1.811224 -3.044898 132 119 101 
0.433673 1.811224 -3.044898 133 120 101 
0.443878 1.811224 -3.044898 132 119 98 
0.453503 1.808917 -3.041019 132 119 98 
0.463694 1.808917 -3.041019 132 119 98 
0.501583 1.798607 -3.023686 131 120 101 
0.510746 1.795196 -3.017952 129 121 101 
0.520531 1.794062 -3.016045 127 121 100 
0.530303 1.792929 -3.014141 128 122 102 
0.540404 1.792929 -3.014141 129 120 101 
0.550158 1.791798 -3.012240 131 120 101 
0.559194 1.788413 -3.006549 130 119 102 
0.568911 1.787288 -3.004657 131 120 104 
0.579345 1.788413 -3.006549 130 119 103 
0.589792 1.789540 -3.008444 130 119 102 
0.600252 1.790668 -3.010340 130 119 102 
0.653153 1.599099 -2.688288 130 119 100 
0.662162 1.599099 -2.688288 130 120 98 
0.671171 1.599099 -2.688288 130 120 98 
0.680180 1.599099 -2.688288 129 121 99 
0.689189 1.599099 -2.688288 129 122 99 
0.698198 1.599099 -2.688288 128 121 98 
4.058651 8.328445 -14.001173 130 119 102 
4.057971 8.231884 -13.838840 130 119 100 
4.080692 8.184438 -13.759077 130 119 100 
4.114943 8.160919 -13.719540 129 118 99 
4.148997 8.137536 -13.680229 128 120 100 
4.194842 8.137536 -13.680229 128 120 101 
4.228571 8.114285 -13.641143 127 119 101 
4.274286 8.114285 -13.641143 128 120 100 
4.307693 8.091168 -13.602279 128 120 100 
4.353276 8.091168 -13.602279 128 120 100 
4.424069 8.137536 -13.680229 128 120 100 
4.482759 8.160919 -13.719540 128 120 103 
4.528736 8.160919 -13.719540 128 119 106 
4.548572 8.114285 -13.641143 127 120 106 
4.581197 8.091168 -13.602279 127 120 104 
4.613636 8.068182 -13.563636 126 120 101 
4.659091 8.068182 -13.563636 127 119 101 
4.704545 8.068182 -13.563636 124 115 98 
7.101449 10.289855 -17.298550 122 117 107 
7.007092 10.070922 -16.930496 122 117 106 
6.989474 9.964912 -16.752281 122 117 105 
6.972222 9.861111 -16.577778 123 116 103 
7.003460 9.826989 -16.520414 123 116 103 
7.034483 9.793103 -16.463448 125 118 104 
7.214035 9.964912 -16.752281 125 117 106 
6.531017 7.047146 -11.847146 117 115 100 
6.570720 7.047146 -11.847146 115 113 101 
6.626866 7.064677 -11.876616 113 113 101 
6.666667 7.064677 -11.876616 113 113 101 
6.723192 7.082294 -11.906234 112 113 99 
6.780000 7.100000 -11.936000 114 113 99 
6.820000 7.100000 -11.936000 114 113 99 
6.877193 7.117795 -11.965915 114 112 99 
6.969697 7.171717 -12.056565 113 112 98 
7.010101 7.171717 -12.056565 113 113 99 
7.195876 7.319588 -12.305155 113 113 97 
7.293507 7.376623 -12.401039 113 112 96 
7.412074 7.454068 -12.531234 113 111 96 
-1.179031 2.793274 -4.722453 118 110 90 
-1.163205 2.793274 -4.722453 118 110 90 
-1.147379 2.793274 -4.722453 119 109 90 
-1.131553 2.793274 -4.722453 119 108 89 
-1.115727 2.793274 -4.722453 119 109 90 
-0.675612 2.228887 -3.768271 121 111 89 
-0.662461 2.227129 -3.765300 120 113 90 
-0.649842 2.227129 -3.765300 120 113 91 
-0.637224 2.227129 -3.765300 120 114 93 
-0.623622 2.223622 -3.759370 120 113 96 
-0.610543 2.221873 -3.756412 119 111 96 
-0.597954 2.221873 -3.756412 121 110 95 
-0.585366 2.221873 -3.756412 122 111 94 
-0.573228 2.223622 -3.759370 121 110 93 
-0.561072 2.225374 -3.762332 122 111 92 
-0.549329 2.228887 -3.768271 123 111 92 
-0.536701 2.228887 -3.768271 122 109 91 
-0.524901 2.232411 -3.774229 124 111 90 
0.070270 1.908108 -3.225946 126 118 97 
0.081081 1.908108 -3.225946 125 119 98 
0.091830 1.906820 -3.223768 124 117 99 
0.102911 1.911984 -3.232498 125 117 100 
0.254215 1.831388 -3.096239 128 119 100 
0.263907 1.826649 -3.088228 128 117 98 
0.273548 1.821936 -3.080258 131 118 97 
0.283871 1.821936 -3.080258 131 119 97 
0.293625 1.818416 -3.074308 131 120 97 
0.302758 1.811418 -3.062476 130 120 98 
0.312420 1.807939 -3.056594 129 119 97 
0.322045 1.804473 -3.050735 128 120 99 
0.332268 1.804473 -3.050735 128 120 100 
0.342492 1.804473 -3.050735 129 120 100 
0.352716 1.804473 -3.050735 130 119 100 
0.362245 1.801020 -3.044898 130 119 100 
0.372449 1.801020 -3.044898 130 119 100 
0.382653 1.801020 -3.044898 130 119 100 
0.392857 1.801020 -3.044898 130 119 103 
0.403061 1.801020 -3.044898 130 119 104 
0.413265 1.801020 -3.044898 131 119 105 
0.423469 1.801020 -3.044898 130 119 102 
0.433673 1.801020 -3.044898 130 119 102 
0.443878 1.801020 -3.044898 130 119 97 
0.453503 1.798726 -3.041019 130 120 97 
0.463694 1.798726 -3.041019 130 120 96 
0.473885 1.798726 -3.041019 132 119 96 
0.493011 1.794155 -3.033291 132 119 98 
0.501583 1.788474 -3.023686 132 120 99 
0.511392 1.787342 -3.021772 132 120 101 
0.520860 1.785082 -3.017952 132 120 102 
0.530973 1.785082 -3.017952 130 120 104 
0.540745 1.783955 -3.016045 130 121 106 
0.550505 1.782828 -3.014141 128 120 104 
0.560252 1.781703 -3.012240 130 118 106 
0.569270 1.778337 -3.006549 131 118 106 
0.579345 1.778337 -3.006549 132 117 106 
0.589792 1.779458 -3.008444 132 117 105 
0.599874 1.779458 -3.008444 130 117 105 
0.609956 1.779458 -3.008444 131 119 107 
0.662162 1.590090 -2.688288 132 119 100 
0.671171 1.590090 -2.688288 132 120 102 
0.680180 1.590090 -2.688288 130 120 101 
0.689189 1.590090 -2.688288 128 121 98 
0.698198 1.590090 -2.688288 128 121 98 
4.048485 8.557576 -14.467878 128 120 100 
4.047904 8.455090 -14.294610 131 120 101 
4.059347 8.379822 -14.167358 130 119 100 
4.058651 8.281525 -14.001173 130 119 100 
4.081633 8.233236 -13.919533 127 119 101 
4.092485 8.161850 -13.798843 126 120 101 
4.114943 8.114943 -13.719540 127 121 102 
4.148997 8.091691 -13.680229 127 121 103 
4.182857 8.068571 -13.641143 128 121 103 
4.228571 8.068571 -13.641143 128 120 102 
4.274286 8.068571 -13.641143 128 120 100 
4.320000 8.068571 -13.641143 127 120 99 
4.365714 8.068571 -13.641143 127 121 100 
4.424069 8.091691 -13.680229 125 122 100 
4.482759 8.114943 -13.719540 126 121 102 
4.528736 8.114943 -13.719540 127 120 104 
4.548572 8.068571 -13.641143 127 120 106 
4.581197 8.045584 -13.602279 127 120 105 
4.613636 8.022727 -13.563636 126 119 103 
4.659091 8.022727 -13.563636 125 119 96 
4.704545 8.022727 -13.563636 123 117 92 
6.950355 10.014184 -16.930496 122 117 103 
6.933333 9.908772 -16.752281 122 117 103 
6.940766 9.839722 -16.635540 122 117 103 
6.948097 9.771626 -16.520414 122 117 103 
6.955327 9.704468 -16.406872 122 117 103 
6.962457 9.638226 -16.294880 123 118 104 
7.089655 9.737931 -16.463448 123 118 104 
6.780000 7.060000 -11.936000 113 112 99 
6.837093 7.077694 -11.965915 116 113 100 
6.929293 7.131313 -12.056565 115 112 99 
6.969697 7.131313 -12.056565 114 113 99 
7.154639 7.278350 -12.305155 114 114 100 
7.251948 7.335065 -12.401039 114 114 98 
-1.180198 2.780198 -4.727129 120 109 88 
-1.163205 2.777448 -4.722453 120 110 87 
-1.147379 2.777448 -4.722453 120 110 87 
-1.132673 2.780198 -4.727129 120 110 87 
-0.675079 2.214511 -3.765300 120 111 89 
-0.660897 2.209284 -3.756412 119 112 89 
-0.648819 2.211024 -3.759370 120 114 91 
-0.636220 2.211024 -3.759370 119 113 92 
-0.623131 2.209284 -3.756412 120 111 94 
-0.610063 2.207547 -3.753459 120 111 94 
-0.596078 2.202353 -3.744627 121 110 94 
-0.583529 2.202353 -3.744627 121 111 92 
-0.572777 2.209284 -3.756412 122 112 93 
-0.560630 2.211024 -3.759370 123 112 92 
-0.548032 2.211024 -3.759370 123 112 92 
-0.535433 2.211024 -3.759370 124 112 92 
-0.522835 2.211024 -3.759370 124 112 92 
0.254876 1.825748 -3.104291 128 118 99 
0.264420 1.819831 -3.094232 128 117 98 
0.274256 1.816300 -3.088228 129 117 96 
0.283871 1.811613 -3.080258 130 118 97 
0.293625 1.808113 -3.074308 130 120 96 
0.302564 1.800000 -3.060513 130 120 98 
0.312220 1.796545 -3.054638 129 119 98 
0.322045 1.794249 -3.050735 128 120 100 
0.331844 1.791959 -3.046841 130 121 102 
0.342055 1.791959 -3.046841 129 120 101 
0.352265 1.791959 -3.046841 131 120 101 
0.362245 1.790816 -3.044898 130 119 100 
0.372449 1.790816 -3.044898 130 119 100 
0.382653 1.790816 -3.044898 130 119 100 
0.392857 1.790816 -3.044898 131 120 105 
0.403061 1.790816 -3.044898 131 120 105 
0.413002 1.789675 -3.042957 130 119 103 
0.423200 1.789675 -3.042957 129 118 101 
0.433397 1.789675 -3.042957 129 118 100 
0.443595 1.789675 -3.042957 130 120 98 
0.453503 1.788535 -3.041019 130 120 97 
0.463399 1.787397 -3.039083 130 120 96 
0.473584 1.787397 -3.039083 131 118 96 
0.483461 1.786260 -3.037150 132 119 97 
0.493011 1.783990 -3.033291 132 119 98 
0.501583 1.778341 -3.023686 132 119 99 
0.511716 1.778341 -3.023686 132 119 100 
0.521519 1.777215 -3.021772 133 120 102 
0.530973 1.774968 -3.017952 130 119 104 
0.541087 1.774968 -3.017952 130 121 106 
0.550853 1.773847 -3.016045 130 121 106 
0.560606 1.772727 -3.014141 131 119 107 
0.569987 1.770492 -3.010340 131 119 107 
0.580076 1.770492 -3.010340 132 118 106 
0.590164 1.770492 -3.010340 132 118 106 
0.599874 1.769376 -3.008444 132 119 108 
0.609956 1.769376 -3.008444 131 119 108 
0.662162 1.581081 -2.688288 132 120 102 
0.671171 1.581081 -2.688288 132 120 102 
0.680180 1.581081 -2.688288 131 121 102 
0.689189 1.581081 -2.688288 129 121 99 
0.698198 1.581081 -2.688288 128 121 99 
4.000000 8.509091 -14.467878 130 121 102 
4.000000 8.407186 -14.294610 130 121 102 
4.023809 8.357142 -14.209523 130 119 100 
4.047337 8.307693 -14.125443 130 119 101 
4.070588 8.258823 -14.042353 130 119 101 
4.081633 8.186589 -13.919533 127 119 102 
4.104348 8.139131 -13.838840 126 119 101 
4.114943 8.068966 -13.719540 127 121 102 
4.160920 8.068966 -13.719540 128 120 102 
4.194842 8.045845 -13.680229 128 119 102 
4.240688 8.045845 -13.680229 130 120 104 
4.286533 8.045845 -13.680229 128 119 101 
4.320000 8.022857 -13.641143 127 120 100 
4.365714 8.022857 -13.641143 127 120 100 
4.424069 8.045845 -13.680229 125 121 100 
4.482759 8.068966 -13.719540 126 120 102 
4.528736 8.068966 -13.719540 127 119 103 
4.548572 8.022857 -13.641143 126 119 104 
4.581197 8.000000 -13.602279 127 119 104 
4.613636 7.977273 -13.563636 126 119 102 
4.659091 7.977273 -13.563636 125 119 96 
4.704545 7.977273 -13.563636 124 117 93 
6.901409 9.887324 -16.811268 122 117 102 
6.885017 9.783972 -16.635540 122 117 102 
6.892734 9.716263 -16.520414 122 118 102 
6.900343 9.649485 -16.406872 122 117 102 
6.931507 9.616438 -16.350685 122 117 102 
6.938776 9.551021 -16.239456 122 117 102 
-1.180198 2.764356 -4.727129 119 108 87 
-1.164356 2.764356 -4.727129 120 110 86 
-1.148515 2.764356 -4.727129 120 110 86 
-0.673485 2.196696 -3.756412 119 113 90 
-0.660897 2.196696 -3.756412 119 113 90 
-0.648308 2.196696 -3.756412 119 113 91 
-0.635720 2.196696 -3.756412 119 113 92 
-0.623131 2.196696 -3.756412 121 111 92 
-0.608627 2.189804 -3.744627 122 111 92 
-0.596078 2.189804 -3.744627 122 111 92 
-0.583529 2.189804 -3.744627 120 113 90 
-0.570980 2.189804 -3.744627 120 113 90 
-0.560189 2.196696 -3.756412 122 112 90 
-0.548032 2.198425 -3.759370 122 112 90 
-0.535012 2.196696 -3.756412 122 112 91 
-0.521193 2.191523 -3.747567 123 113 93 
-0.510236 2.198425 -3.759370 123 113 94 
0.199059 1.877606 -3.210760 127 119 98 
0.209677 1.876344 -3.208602 126 118 98 
0.293436 1.796654 -3.072330 129 118 99 
0.301983 1.786308 -3.054638 127 119 99 
0.311821 1.784026 -3.050735 128 119 100 
0.321634 1.781749 -3.046841 130 119 102 
0.331844 1.781749 -3.046841 132 118 103 
0.342055 1.781749 -3.046841 133 119 103 
0.352265 1.781749 -3.046841 132 118 102 
0.362245 1.780612 -3.044898 132 118 102 
0.372449 1.780612 -3.044898 131 117 101 
0.382653 1.780612 -3.044898 132 118 102 
0.392857 1.780612 -3.044898 131 120 101 
0.403061 1.780612 -3.044898 131 120 101 
0.413002 1.779477 -3.042957 130 120 98 
0.423200 1.779477 -3.042957 129 119 97 
0.433397 1.779477 -3.042957 130 120 98 
0.443595 1.779477 -3.042957 130 120 98 
0.453503 1.778344 -3.041019 130 120 98 
0.463399 1.777212 -3.039083 130 120 98 
0.473282 1.776081 -3.037150 132 119 98 
0.483153 1.774952 -3.035219 132 119 98 
0.493011 1.773825 -3.033291 132 119 98 
0.501583 1.768208 -3.023686 132 119 98 
0.511716 1.768208 -3.023686 133 120 100 
0.521519 1.767089 -3.021772 133 120 101 
0.531309 1.765971 -3.019861 129 121 101 
0.541087 1.764855 -3.017952 129 121 104 
0.550853 1.763740 -3.016045 128 122 106 
0.560606 1.762626 -3.014141 129 121 105 
0.569987 1.760404 -3.010340 130 120 106 
0.580076 1.760404 -3.010340 130 119 104 
0.590164 1.760404 -3.010340 130 119 104 
0.600252 1.760404 -3.010340 131 120 106 
0.609956 1.759294 -3.008444 131 120 106 
0.620038 1.759294 -3.008444 130 121 106 
0.671171 1.572072 -2.688288 131 120 101 
0.680180 1.572072 -2.688288 130 119 100 
0.689189 1.572072 -2.688288 130 120 101 
0.698198 1.572072 -2.688288 130 120 101 
0.711212 1.580974 -2.703511 131 120 101 
4.000000 8.460606 -14.467878 129 121 101 
3.988060 8.334329 -14.251940 129 120 101 
4.023809 8.309524 -14.209523 130 119 102 
4.059347 8.284866 -14.167358 130 119 103 
4.070588 8.211764 -14.042353 129 118 103 
4.117647 8.211764 -14.042353 127 118 103 
4.128280 8.139941 -13.919533 127 118 103 
4.162791 8.116279 -13.879069 128 120 104 
4.160920 8.022988 -13.719540 129 118 103 
4.194842 8.000000 -13.680229 129 117 103 
4.240688 8.000000 -13.680229 128 117 102 
4.286533 8.000000 -13.680229 127 118 103 
4.332378 8.000000 -13.680229 128 119 102 
4.378223 8.000000 -13.680229 127 119 101 
4.436781 8.022988 -13.719540 127 119 101 
4.482759 8.022988 -13.719540 127 119 102 
4.528736 8.022988 -13.719540 127 119 103 
4.561604 8.000000 -13.680229 127 118 103 
4.581197 7.954416 -13.602279 127 119 103 
4.626781 7.954416 -13.602279 127 119 101 
4.672365 7.954416 -13.602279 126 118 96 
6.877193 9.796492 -16.752281 123 117 101 
6.861111 9.694445 -16.577778 121 117 100 
6.868966 9.627586 -16.463448 121 117 100 
6.876712 9.561644 -16.350685 121 117 100 
6.884354 9.496598 -16.239456 119 115 98 
6.845638 9.369127 -16.021477 120 116 99 
6.465754 7.649315 -13.080547 115 110 98 
6.509589 7.649315 -13.080547 117 110 97 
6.571429 7.670330 -13.116484 115 110 96 
6.615385 7.670330 -13.116484 115 110 96 
6.752089 7.777159 -13.299164 115 111 98 
9.889298 10.302583 -17.617712 115 117 102 
-1.565912 3.696405 -6.357390 119 108 89 
-0.660897 2.184107 -3.756412 120 112 94 
-0.648308 2.184107 -3.756412 120 112 93 
-0.636722 2.187549 -3.762332 119 112 92 
-0.624114 2.187549 -3.762332 121 111 90 
-0.610543 2.184107 -3.756412 122 112 90 
-0.596078 2.177255 -3.744627 122 111 88 
-0.583529 2.177255 -3.744627 121 111 90 
-0.572777 2.184107 -3.756412 121 111 91 
-0.560630 2.185827 -3.759370 123 110 93 
-0.548032 2.185827 -3.759370 123 111 92 
-0.535012 2.184107 -3.756412 123 111 92 
-0.520784 2.177255 -3.744627 123 112 93 
-0.508235 2.177255 -3.744627 124 112 92 
-0.211712 1.563063 -2.688288 127 114 99 
-0.202703 1.563063 -2.688288 127 113 98 
-0.193694 1.563063 -2.688288 126 112 96 
0.188299 1.866846 -3.210760 126 118 100 
0.198925 1.865591 -3.208602 127 118 101 
0.209677 1.865591 -3.208602 127 118 101 
0.220430 1.865591 -3.208602 127 117 102 
0.231028 1.864339 -3.206447 128 117 101 
0.241611 1.863087 -3.204295 128 116 100 
0.252518 1.864339 -3.206447 129 118 100 
0.301983 1.776072 -3.054638 129 118 99 
0.311821 1.773802 -3.050735 129 118 99 
0.321429 1.770408 -3.044898 129 118 100 
0.331633 1.770408 -3.044898 130 118 100 
0.341837 1.770408 -3.044898 131 118 101 
0.352041 1.770408 -3.044898 131 118 100 
0.362245 1.770408 -3.044898 132 118 101 
0.372449 1.770408 -3.044898 132 118 102 
0.382653 1.770408 -3.044898 131 119 102 
0.392857 1.770408 -3.044898 130 119 102 
0.403061 1.770408 -3.044898 130 119 102 
0.413265 1.770408 -3.044898 129 119 100 
0.423469 1.770408 -3.044898 129 119 98 
0.433397 1.769280 -3.042957 130 120 98 
0.443595 1.769280 -3.042957 130 120 98 
0.453503 1.768153 -3.041019 131 120 102 
0.463399 1.767027 -3.039083 130 119 101 
0.473282 1.765903 -3.037150 131 118 101 
0.483153 1.764781 -3.035219 132 119 100 
0.493011 1.763659 -3.033291 132 119 99 
0.501901 1.759189 -3.025602 132 119 99 
0.511716 1.758075 -3.023686 132 119 100 
0.521519 1.756962 -3.021772 132 119 100 
0.531309 1.755851 -3.019861 130 120 102 
0.541087 1.754741 -3.017952 129 120 103 
0.550853 1.753632 -3.016045 128 121 105 
0.560606 1.752525 -3.014141 128 119 105 
0.569987 1.750315 -3.010340 130 119 106 
0.580076 1.750315 -3.010340 130 118 105 
0.590164 1.750315 -3.010340 130 119 104 
0.600252 1.750315 -3.010340 131 120 104 
0.609956 1.749212 -3.008444 131 120 105 
0.620038 1.749212 -3.008444 130 121 105 
0.630120 1.749212 -3.008444 127 121 103 
0.640605 1.750315 -3.010340 126 122 104 
0.680180 1.563063 -2.688288 131 120 102 
0.689189 1.563063 -2.688288 131 121 102 
0.698198 1.563063 -2.688288 130 119 100 
0.711212 1.571914 -2.703511 130 119 100 
0.722317 1.576377 -2.711187 130 119 103 
3.988060 8.286567 -14.251940 129 119 103 
4.023809 8.261905 -14.209523 129 118 103 
4.071429 8.261905 -14.209523 129 118 103 
4.094675 8.213017 -14.125443 129 118 103 
4.117647 8.164706 -14.042353 128 117 104 
4.164706 8.164706 -14.042353 128 117 104 
4.199413 8.140762 -14.001173 129 118 105 
4.209302 8.069767 -13.879069 129 118 101 
4.231214 8.023122 -13.798843 129 117 100 
4.277457 8.023122 -13.798843 129 116 99 
4.323699 8.023122 -13.798843 129 117 99 
4.357349 8.000000 -13.759077 128 119 101 
4.403458 8.000000 -13.759077 126 120 101 
4.462428 8.023122 -13.798843 126 120 101 
4.508670 8.023122 -13.798843 126 119 103 
4.541787 8.000000 -13.759077 126 118 104 
4.574713 7.977012 -13.719540 128 119 105 
4.607450 7.954154 -13.680229 127 118 104 
4.653295 7.954154 -13.680229 126 117 103 
6.853147 9.706294 -16.693707 121 112 100 
6.861111 9.638889 -16.577778 120 111 100 
6.845361 9.539519 -16.406872 119 111 100 
6.853242 9.474402 -16.294880 119 110 99 
6.837838 9.378378 -16.129730 119 108 97 
6.845638 9.315436 -16.021477 117 105 94 
6.807947 9.192053 -15.809271 120 106 95 
6.421918 7.605479 -13.080547 116 112 94 
6.448087 7.584700 -13.044808 117 113 94 
6.509589 7.605479 -13.080547 117 114 94 
6.553425 7.605479 -13.080547 117 113 96 
6.615385 7.626374 -13.116484 117 113 96 
6.659341 7.626374 -13.116484 117 113 96 
6.777778 7.711111 -13.262222 117 114 98 
9.771217 10.243543 -17.617712 116 117 101 
9.794118 10.205882 -17.552940 115 117 103 
9.852942 10.205882 -17.552940 115 117 102 
9.911765 10.205882 -17.552940 115 117 101 
8.747663 8.647975 -14.873520 117 115 103 
8.689231 8.541538 -14.690461 116 116 103 
8.738461 8.541538 -14.690461 115 117 103 
-1.565912 3.675100 -6.357390 120 108 92 
-1.544607 3.675100 -6.357390 120 109 91 
-1.521277 3.670213 -6.348936 120 109 90 
-1.500000 3.670213 -6.348936 120 109 90 
-1.478723 3.670213 -6.348936 121 109 90 
-1.457447 3.670213 -6.348936 120 109 89 
-0.651383 2.181818 -3.774229 120 112 93 
-0.638735 2.181818 -3.774229 119 112 91 
-0.625592 2.180095 -3.771248 121 111 89 
-0.611505 2.174941 -3.762332 121 111 88 
-0.598897 2.174941 -3.762332 121 111 87 
-0.586288 2.174941 -3.762332 121 110 90 
-0.573680 2.174941 -3.762332 121 110 91 
-0.561514 2.176656 -3.765300 124 110 94 
-0.548463 2.174941 -3.762332 124 111 93 
-0.535855 2.174941 -3.762332 124 111 92 
-0.522423 2.171519 -3.756412 122 111 92 
-0.220721 1.554054 -2.688288 124 114 95 
-0.211712 1.554054 -2.688288 126 112 97 
-0.202703 1.554054 -2.688288 126 112 96 
-0.193694 1.554054 -2.688288 125 111 95 
-0.184685 1.554054 -2.688288 125 112 93 
0.033981 1.674757 -2.897087 128 115 97 
0.043689 1.674757 -2.897087 128 115 97 
0.053398 1.674757 -2.897087 128 115 99 
0.063069 1.673742 -2.895330 128 115 99 
0.072771 1.673742 -2.895330 128 115 99 
0.082474 1.673742 -2.895330 129 116 98 
0.188299 1.856086 -3.210760 126 117 102 
0.198925 1.854839 -3.208602 126 117 102 
0.209677 1.854839 -3.208602 125 116 101 
0.220282 1.853593 -3.206447 127 118 105 
0.230872 1.852349 -3.204295 128 118 104 
0.241611 1.852349 -3.204295 129 118 103 
0.252518 1.853593 -3.206447 129 118 101 
0.263264 1.853593 -3.206447 129 119 101 
0.311821 1.763578 -3.050735 131 119 100 
0.321429 1.760204 -3.044898 129 118 99 
0.331633 1.760204 -3.044898 129 118 99 
0.341837 1.760204 -3.044898 130 118 99 
0.352041 1.760204 -3.044898 131 118 99 
0.362245 1.760204 -3.044898 132 118 102 
0.372449 1.760204 -3.044898 132 118 102 
0.382653 1.760204 -3.044898 130 119 102 
0.392857 1.760204 -3.044898 130 119 104 
0.403061 1.760204 -3.044898 130 119 104 
0.413265 1.760204 -3.044898 130 119 102 
0.423469 1.760204 -3.044898 129 119 98 
0.433673 1.760204 -3.044898 130 120 98 
0.443878 1.760204 -3.044898 130 120 98 
0.453503 1.757962 -3.041019 129 119 102 
0.463399 1.756843 -3.039083 130 119 104 
0.473584 1.756843 -3.039083 132 118 104 
0.483153 1.754609 -3.035219 132 118 101 
0.493325 1.754609 -3.035219 132 119 100 
0.501901 1.749049 -3.025602 132 119 100 
0.512041 1.749049 -3.025602 132 119 100 
0.521519 1.746835 -3.021772 133 120 102 
0.531309 1.745731 -3.019861 130 119 102 
0.541087 1.744627 -3.017952 129 120 103 
0.550853 1.743525 -3.016045 128 120 104 
0.560606 1.742424 -3.014141 128 119 106 
0.569987 1.740227 -3.010340 130 119 107 
0.580076 1.740227 -3.010340 130 118 106 
0.590536 1.741325 -3.012240 130 119 104 
0.600631 1.741325 -3.012240 131 120 104 
0.610340 1.740227 -3.010340 131 120 104 
0.620038 1.739130 -3.008444 130 121 104 
0.630120 1.739130 -3.008444 127 121 102 
0.640202 1.739130 -3.008444 125 122 102 
0.651104 1.741325 -3.012240 125 122 102 
0.693092 1.562854 -2.703511 130 119 100 
0.702152 1.562854 -2.703511 131 121 102 
0.711212 1.562854 -2.703511 130 119 100 
0.722317 1.567291 -2.711187 130 119 103 
0.731818 1.568182 -2.712727 130 119 104 
4.035821 8.238806 -14.251940 129 118 103 
4.083582 8.238806 -14.251940 129 118 103 
4.119048 8.214286 -14.209523 129 118 103 
4.154303 8.189911 -14.167358 128 116 104 
4.189349 8.165681 -14.125443 129 117 105 
4.391691 8.189911 -14.167358 129 116 98 
4.387097 8.093842 -14.001173 131 118 99 
4.434018 8.093842 -14.001173 128 119 100 
4.441861 8.023255 -13.879069 126 120 101 
4.501458 8.046647 -13.919533 126 120 101 
4.548105 8.046647 -13.919533 126 119 103 
4.581395 8.023255 -13.879069 125 118 104 
4.574713 7.931035 -13.719540 126 117 104 
4.620690 7.931035 -13.719540 125 116 104 
6.853147 9.650350 -16.693707 119 110 98 
6.861111 9.583333 -16.577778 119 110 99 
6.845361 9.484536 -16.406872 119 111 100 
6.853242 9.419795 -16.294880 118 109 98 
6.791946 9.261744 -16.021477 119 109 97 
6.754967 9.139072 -15.809271 120 109 96 
6.807947 9.139072 -15.809271 122 110 97 
6.404372 7.540984 -13.044808 117 113 96 
6.448087 7.540984 -13.044808 118 114 97 
6.509589 7.561644 -13.080547 118 114 98 
6.553425 7.561644 -13.080547 119 115 100 
6.615385 7.582417 -13.116484 118 115 100 
6.659341 7.582417 -13.116484 117 115 98 
6.759003 7.645429 -13.225485 117 115 99 
6.841226 7.688022 -13.299164 116 114 97 
9.712177 10.184502 -17.617712 116 114 98 
9.735294 10.147058 -17.552940 115 115 99 
9.794118 10.147058 -17.552940 115 115 101 
9.816850 10.109890 -17.488644 115 115 101 
9.911765 10.147058 -17.552940 115 115 99 
8.977492 8.874599 -15.351768 118 115 107 
8.802507 8.652038 -14.966771 118 115 106 
8.797508 8.598131 -14.873520 118 115 105 
8.847352 8.598131 -14.873520 118 115 103 
-1.565912 3.653795 -6.357390 121 107 94 
-1.542553 3.648936 -6.348936 120 108 91 
-1.521277 3.648936 -6.348936 120 109 90 
-1.500000 3.648936 -6.348936 120 109 90 
-1.478723 3.648936 -6.348936 121 109 90 
-1.455511 3.644090 -6.340505 121 108 90 
-1.434263 3.644090 -6.340505 121 108 90 
-0.639241 2.170886 -3.777215 120 112 90 
-0.626087 2.169170 -3.774229 122 113 87 
-0.612954 2.167457 -3.771248 122 113 86 
-0.599842 2.165746 -3.768271 121 114 84 
-0.587214 2.165746 -3.768271 121 114 87 
-0.574586 2.165746 -3.768271 121 113 89 
-0.561957 2.165746 -3.768271 122 111 94 
-0.549329 2.165746 -3.768271 122 111 94 
-0.536278 2.164038 -3.765300 122 111 94 
-0.523247 2.162333 -3.762332 120 112 94 
-0.220721 1.545045 -2.688288 124 113 97 
-0.211712 1.545045 -2.688288 124 113 99 
-0.202703 1.545045 -2.688288 123 112 97 
-0.193694 1.545045 -2.688288 124 113 98 
-0.184685 1.545045 -2.688288 124 114 95 
-0.175676 1.545045 -2.688288 125 114 93 
0.033960 1.664039 -2.895330 125 117 97 
0.043636 1.663030 -2.893576 124 116 96 
0.053333 1.663030 -2.893576 127 116 97 
0.062992 1.662023 -2.891823 126 117 97 
0.072683 1.662023 -2.891823 125 117 97 
0.082275 1.660012 -2.888324 127 116 97 
0.092065 1.662023 -2.891823 128 116 96 
0.188299 1.845326 -3.210760 126 118 100 
0.198925 1.844086 -3.208602 127 117 102 
0.209677 1.844086 -3.208602 128 116 104 
0.220282 1.842848 -3.206447 129 118 101 
0.231028 1.842848 -3.206447 129 119 101 
0.241773 1.842848 -3.206447 127 119 99 
0.252518 1.842848 -3.206447 128 120 100 
0.263441 1.844086 -3.208602 128 119 100 
0.274194 1.844086 -3.208602 128 117 98 
0.284946 1.844086 -3.208602 129 116 98 
0.331633 1.750000 -3.044898 129 118 99 
0.341837 1.750000 -3.044898 130 119 100 
0.352041 1.750000 -3.044898 130 119 100 
0.362245 1.750000 -3.044898 129 118 99 
0.372449 1.750000 -3.044898 130 119 100 
0.382653 1.750000 -3.044898 130 119 102 
0.392857 1.750000 -3.044898 130 118 105 
0.403061 1.750000 -3.044898 130 118 105 
0.413265 1.750000 -3.044898 130 119 102 
0.423469 1.750000 -3.044898 129 118 100 
0.433673 1.750000 -3.044898 130 119 100 
0.443878 1.750000 -3.044898 132 118 102 
0.454082 1.750000 -3.044898 132 117 105 
0.463694 1.747771 -3.041019 133 119 108 
0.473584 1.746658 -3.039083 130 119 104 
0.483768 1.746658 -3.039083 130 119 103 
0.493325 1.744437 -3.035219 130 119 102 
0.503497 1.744437 -3.035219 130 119 102 
0.512041 1.738910 -3.025602 130 119 104 
0.522180 1.738910 -3.025602 130 119 104 
0.530973 1.734513 -3.017952 130 119 104 
0.540745 1.733418 -3.016045 130 119 105 
0.550505 1.732323 -3.014141 130 119 104 
0.560252 1.731230 -3.012240 130 119 102 
0.569987 1.730139 -3.010340 130 119 102 
0.580076 1.730139 -3.010340 130 119 102 
0.590536 1.731230 -3.012240 130 119 102 
0.600631 1.731230 -3.012240 131 119 103 
0.610340 1.730139 -3.010340 132 118 102 
0.620038 1.729048 -3.008444 132 118 102 
0.630517 1.730139 -3.010340 131 118 102 
0.640605 1.730139 -3.010340 130 119 104 
0.651104 1.731230 -3.012240 128 120 104 
0.694665 1.557321 -2.709648 128 119 106 
0.703746 1.557321 -2.709648 129 120 106 
0.713231 1.558206 -2.711187 128 120 102 
0.722727 1.559091 -2.712727 128 120 100 
4.120482 8.265060 -14.380723 127 117 103 
4.168674 8.265060 -14.380723 126 117 103 
4.452381 8.166667 -14.209523 125 117 97 
4.473373 8.118343 -14.125443 123 118 97 
4.520710 8.118343 -14.125443 122 119 97 
4.541176 8.070588 -14.042353 121 117 98 
4.588235 8.070588 -14.042353 122 118 100 
4.621701 8.046921 -14.001173 122 118 101 
6.853147 9.594405 -16.693707 120 114 98 
6.861111 9.527778 -16.577778 120 114 99 
6.868966 9.462069 -16.463448 120 113 99 
6.853242 9.365188 -16.294880 120 113 100 
6.769231 9.177258 -15.967893 121 113 97 
6.754967 9.086093 -15.809271 123 114 96 
6.807947 9.086093 -15.809271 121 115 97 
6.378082 7.517808 -13.080547 117 113 98 
6.404372 7.497268 -13.044808 117 113 98 
6.448087 7.497268 -13.044808 118 113 99 
6.491803 7.497268 -13.044808 119 115 103 
6.553425 7.517808 -13.080547 119 115 103 
6.597260 7.517808 -13.080547 119 115 103 
6.659341 7.538462 -13.116484 117 115 99 
6.740332 7.580111 -13.188950 116 114 97 
6.822222 7.622222 -13.262222 116 114 96 
9.653136 10.125462 -17.617712 116 113 98 
9.676471 10.088235 -17.552940 116 114 98 
9.735294 10.088235 -17.552940 115 115 99 
9.758242 10.051282 -17.488644 115 115 101 
9.781022 10.014599 -17.424818 114 114 100 
9.839417 10.014599 -17.424818 115 114 98 
9.214521 9.056106 -15.757095 117 115 106 
9.087379 8.880259 -15.451133 117 114 104 
9.080386 8.823152 -15.351768 117 114 102 
-1.587217 3.632490 -6.357390 120 109 88 
-1.563830 3.627660 -6.348936 120 109 88 
-1.542553 3.627660 -6.348936 120 109 89 
-1.521277 3.627660 -6.348936 120 109 90 
-1.500000 3.627660 -6.348936 120 109 92 
-1.478723 3.627660 -6.348936 121 108 92 
-1.455511 3.622842 -6.340505 121 108 92 
-1.434263 3.622842 -6.340505 121 108 90 
-0.639241 2.158228 -3.777215 119 112 91 
-0.626582 2.158228 -3.777215 121 112 88 
-0.612954 2.154818 -3.771248 122 113 88 
-0.599842 2.153118 -3.768271 121 114 87 
-0.587214 2.153118 -3.768271 122 114 89 
-0.574586 2.153118 -3.768271 122 114 90 
-0.561957 2.153118 -3.768271 122 111 94 
-0.549329 2.153118 -3.768271 122 111 94 
-0.536701 2.153118 -3.768271 122 112 95 
-0.220721 1.536036 -2.688288 124 113 97 
-0.211712 1.536036 -2.688288 124 113 99 
-0.202703 1.536036 -2.688288 123 113 98 
-0.193694 1.536036 -2.688288 123 113 98 
-0.184685 1.536036 -2.688288 125 114 95 
-0.175676 1.536036 -2.688288 125 114 94 
0.024228 1.652332 -2.891823 126 117 98 
0.033898 1.651332 -2.890073 125 116 97 
0.043584 1.651332 -2.890073 126 116 98 
0.053269 1.651332 -2.890073 127 116 98 
0.062954 1.651332 -2.890073 126 116 98 
0.072595 1.650333 -2.888324 126 117 98 
0.082225 1.649335 -2.886578 127 116 97 
0.091843 1.648338 -2.884834 128 116 96 
0.101572 1.649335 -2.886578 128 116 96 
0.156229 1.837037 -3.215084 125 119 99 
0.167003 1.837037 -3.215084 124 119 99 
0.177539 1.834566 -3.210760 124 120 100 
0.188172 1.833333 -3.208602 126 118 101 
0.198925 1.833333 -3.208602 126 116 101 
0.209677 1.833333 -3.208602 127 115 102 
0.220430 1.833333 -3.208602 128 117 99 
0.231028 1.832102 -3.206447 128 117 99 
0.241773 1.832102 -3.206447 127 118 99 
0.252688 1.833333 -3.208602 128 119 100 
0.263441 1.833333 -3.208602 128 118 99 
0.274194 1.833333 -3.208602 129 117 98 
0.284946 1.833333 -3.208602 130 117 98 
0.295699 1.833333 -3.208602 130 117 99 
0.306452 1.833333 -3.208602 129 116 99 
0.317204 1.833333 -3.208602 129 117 100 
0.362245 1.739796 -3.044898 128 118 99 
0.372449 1.739796 -3.044898 128 118 100 
0.382897 1.740906 -3.046841 129 118 101 
0.393359 1.742018 -3.048787 129 118 103 
0.403318 1.740906 -3.046841 129 118 103 
0.413529 1.740906 -3.046841 129 118 101 
0.423740 1.740906 -3.046841 130 119 101 
0.433950 1.740906 -3.046841 130 119 101 
0.444161 1.740906 -3.046841 131 118 102 
0.454371 1.740906 -3.046841 131 118 105 
0.483768 1.736474 -3.039083 129 119 102 
0.493325 1.734266 -3.035219 129 119 102 
0.501901 1.728771 -3.025602 129 119 102 
0.512041 1.728771 -3.025602 129 119 102 
0.540745 1.723310 -3.016045 130 119 102 
0.550158 1.721136 -3.012240 130 119 102 
0.559899 1.720050 -3.010340 130 119 101 
0.569987 1.720050 -3.010340 130 119 101 
0.580076 1.720050 -3.010340 130 119 101 
0.590536 1.721136 -3.012240 131 119 101 
0.600631 1.721136 -3.012240 131 119 101 
0.610340 1.720050 -3.010340 131 118 100 
0.620429 1.720050 -3.010340 131 118 101 
0.641414 1.722222 -3.014141 129 120 102 
0.651515 1.722222 -3.014141 128 120 102 
0.667423 1.548241 -2.709648 126 118 105 
0.676504 1.548241 -2.709648 126 118 104 
0.685974 1.549120 -2.711187 125 117 104 
0.694665 1.548241 -2.709648 125 117 104 
0.704545 1.550000 -2.712727 125 117 104 
0.713636 1.550000 -2.712727 125 118 102 
4.452381 8.119047 -14.209523 124 114 99 
4.486647 8.094955 -14.167358 123 115 98 
4.520710 8.071006 -14.125443 122 115 97 
4.554572 8.047197 -14.083776 121 114 97 
4.588235 8.023529 -14.042353 122 115 99 
4.635294 8.023529 -14.042353 122 115 99 
6.853147 9.538462 -16.693707 121 116 98 
6.861111 9.472222 -16.577778 120 116 98 
6.868966 9.406897 -16.463448 121 116 99 
6.853242 9.310580 -16.294880 121 114 101 
6.746666 9.093333 -15.914666 122 114 101 
6.732673 9.003301 -15.757095 123 115 101 
6.785479 9.003301 -15.757095 121 116 101 
6.334247 7.473973 -13.080547 117 112 100 
6.360656 7.453552 -13.044808 119 111 100 
6.386921 7.433242 -13.009264 117 112 100 
6.448087 7.453552 -13.044808 117 112 100 
6.491803 7.453552 -13.044808 118 113 103 
6.535519 7.453552 -13.044808 118 113 105 
6.597260 7.473973 -13.080547 118 113 105 
6.641096 7.473973 -13.080547 117 112 102 
6.740332 7.535912 -13.188950 117 113 99 
6.822222 7.577778 -13.262222 117 113 98 
9.665427 10.141264 -17.748699 117 113 98 
9.653136 10.066421 -17.617712 116 113 98 
9.676471 10.029411 -17.552940 117 115 99 
9.699634 9.992674 -17.488644 117 115 99 
9.758242 9.992674 -17.488644 117 115 99 
9.781022 9.956204 -17.424818 117 114 99 
9.768116 9.884058 -17.298550 116 114 98 
9.192053 9.033113 -15.809271 115 117 103 
9.184211 8.973684 -15.705263 115 115 104 
9.146580 8.885994 -15.551791 116 114 102 
9.139158 8.828479 -15.451133 117 114 101 
-1.585106 3.606383 -6.348936 120 109 87 
-1.563830 3.606383 -6.348936 120 109 87 
-1.542553 3.606383 -6.348936 120 109 89 
-1.521277 3.606383 -6.348936 120 109 90 
-1.500000 3.606383 -6.348936 118 107 91 
-1.478723 3.606383 -6.348936 120 108 91 
-1.455511 3.601594 -6.340505 121 108 91 
-1.434263 3.601594 -6.340505 120 107 89 
-0.626582 2.145570 -3.777215 121 111 89 
-0.612470 2.140489 -3.768271 122 112 90 
-0.599842 2.140489 -3.768271 119 112 87 
-0.587214 2.140489 -3.768271 120 112 89 
-0.574586 2.140489 -3.768271 121 113 91 
-0.561957 2.140489 -3.768271 122 111 94 
-0.549329 2.140489 -3.768271 122 111 94 
-0.536701 2.140489 -3.768271 122 111 94 
-0.211712 1.527027 -2.688288 123 114 99 
-0.202703 1.527027 -2.688288 123 114 99 
-0.193694 1.527027 -2.688288 122 113 97 
-0.184685 1.527027 -2.688288 125 112 94 
-0.175676 1.527027 -2.688288 126 113 94 
-0.167610 1.535674 -2.703511 126 113 95 
0.014528 1.641647 -2.890073 127 116 97 
0.024198 1.640653 -2.888324 127 116 99 
0.033878 1.640653 -2.888324 128 115 99 
0.043557 1.640653 -2.888324 128 115 99 
0.053237 1.640653 -2.888324 128 115 99 
0.062916 1.640653 -2.888324 127 116 99 
0.072551 1.639661 -2.886578 127 116 99 
0.082027 1.635706 -2.879614 127 116 97 
0.091621 1.634720 -2.877878 128 115 97 
0.101205 1.633735 -2.876144 128 115 97 
0.110910 1.634720 -2.877878 128 115 97 
0.156124 1.825034 -3.212920 127 116 101 
0.166891 1.825034 -3.212920 125 117 101 
0.177419 1.822581 -3.208602 124 117 101 
0.188172 1.822581 -3.208602 126 117 102 
0.198925 1.822581 -3.208602 126 116 100 
0.209677 1.822581 -3.208602 127 116 99 
0.220430 1.822581 -3.208602 128 115 97 
0.231183 1.822581 -3.208602 129 116 99 
0.241935 1.822581 -3.208602 128 117 100 
0.252688 1.822581 -3.208602 128 117 100 
0.263441 1.822581 -3.208602 130 118 100 
0.274194 1.822581 -3.208602 130 117 99 
0.284946 1.822581 -3.208602 132 119 100 
0.295699 1.822581 -3.208602 130 117 99 
0.306452 1.822581 -3.208602 131 117 101 
0.316991 1.821357 -3.206447 130 119 102 
0.327737 1.821357 -3.206447 129 119 101 
0.443666 1.583187 -2.787157 127 119 101 
0.453006 1.583187 -2.787157 128 120 102 
0.462347 1.583187 -2.787157 128 120 102 
0.471687 1.583187 -2.787157 129 119 102 
0.550158 1.711041 -3.012240 130 119 100 
0.559546 1.708885 -3.008444 130 119 100 
0.569628 1.708885 -3.008444 129 118 99 
0.580076 1.709962 -3.010340 130 119 100 
0.590164 1.709962 -3.010340 131 118 99 
0.600252 1.709962 -3.010340 132 119 100 
0.610340 1.709962 -3.010340 132 119 100 
0.659091 1.540909 -2.712727 123 117 101 
