ply
format ascii 1.0
element vertex 1156
property float x
property float y
property float z
property uchar red
property uchar green
property uchar blue
end_header
-3.777778 -1.444444 -9.481482 140 127 109 
-3.763615 -1.446118 -9.492468 144 131 113 
-3.753775 -1.449477 -9.514518 148 135 117 
-3.743888 -1.452852 -9.536671 149 136 118 
-3.742690 -1.459649 -9.581286 150 139 122 
-3.737089 -1.464789 -9.615024 152 141 124 
-3.727059 -1.468235 -9.637647 155 144 125 
-3.708235 -1.468235 -9.637647 157 146 127 
-3.693757 -1.469965 -9.648999 162 151 132 
-3.674912 -1.469965 -9.648999 162 151 132 
-3.660377 -1.471698 -9.660378 164 151 133 
-3.641510 -1.471698 -9.660378 168 155 136 
-3.626919 -1.473436 -9.671782 171 158 140 
-2.982759 -1.344828 -8.827586 175 169 148 
-2.952790 -1.339056 -8.789700 179 168 149 
-2.932476 -1.337621 -8.780278 181 171 152 
-2.915327 -1.337621 -8.780278 177 169 151 
-2.895075 -1.336188 -8.770878 177 169 151 
-2.874866 -1.334759 -8.761497 175 166 149 
-2.857754 -1.334759 -8.761497 175 166 149 
-2.837607 -1.333333 -8.752137 175 166 149 
-2.820513 -1.333333 -8.752137 175 166 149 
-2.803419 -1.333333 -8.752137 178 164 151 
-2.783351 -1.331910 -8.742796 184 170 157 
-2.763326 -1.330490 -8.733476 170 97 99 
-2.743344 -1.329073 -8.724174 115 41 43 
-2.726305 -1.329073 -8.724174 196 15 47 
-2.709265 -1.329073 -8.724174 196 15 47 
-2.692226 -1.329073 -8.724174 211 10 44 
-2.678038 -1.330490 -8.733476 212 11 45 
-2.660981 -1.330490 -8.733476 217 9 43 
-2.641108 -1.329073 -8.724174 217 9 43 
-2.624068 -1.329073 -8.724174 218 8 38 
-2.598726 -1.324841 -8.696391 218 8 38 
-2.565401 -1.316456 -8.641350 219 8 32 
-2.532495 -1.308176 -8.587002 219 8 32 
-2.515723 -1.308176 -8.587002 219 9 30 
-5.663366 -3.089109 -20.277227 220 11 27 
-5.487923 -3.014493 -19.787439 220 11 27 
-5.423077 -3.000000 -19.692308 220 11 27 
-5.384615 -3.000000 -19.692308 220 10 29 
-5.244019 -2.985646 -19.598085 223 10 32 
-4.699552 -2.798206 -18.367714 223 9 36 
-4.663677 -2.798206 -18.367714 226 10 37 
-4.571429 -2.971429 -19.504763 226 10 35 
-4.533333 -2.971429 -19.504763 227 11 36 
-4.440191 -2.985646 -19.598085 227 11 38 
-4.412470 -2.992806 -19.645084 227 11 38 
-4.374101 -2.992806 -19.645084 227 10 40 
-4.335732 -2.992806 -19.645084 228 12 41 
-4.297362 -2.992806 -19.645084 231 11 47 
-4.248804 -2.985646 -19.598085 230 10 45 
-4.210526 -2.985646 -19.598085 229 9 44 
-4.182254 -2.992806 -19.645084 230 10 45 
-4.153846 -3.000000 -19.692308 229 12 47 
-4.115385 -3.000000 -19.692308 229 12 47 
-4.086747 -3.007229 -19.739759 229 12 49 
-4.067797 -3.021792 -19.835352 229 12 49 
-1.456265 -1.475177 -9.683215 233 10 47 
-1.432273 -1.469965 -9.648999 233 10 47 
-1.410106 -1.466510 -9.626322 233 10 47 
-1.384795 -1.459649 -9.581286 233 10 47 
-1.354988 -1.447796 -9.503480 233 10 47 
-1.334878 -1.446118 -9.492468 233 11 45 
-1.316338 -1.446118 -9.492468 231 10 43 
-1.294798 -1.442775 -9.470520 231 10 41 
-1.270426 -1.436134 -9.426928 233 11 43 
-1.252014 -1.436134 -9.426928 233 11 45 
-0.688372 -1.451163 -9.525581 209 19 52 
-0.666667 -1.444444 -9.481482 221 11 45 
-0.648148 -1.444444 -9.481482 220 9 44 
-0.629630 -1.444444 -9.481482 232 16 39 
-0.611111 -1.444444 -9.481482 226 10 33 
-0.592593 -1.444444 -9.481482 231 9 27 
-0.574074 -1.444444 -9.481482 231 9 27 
-0.556199 -1.446118 -9.492468 231 9 27 
-0.537659 -1.446118 -9.492468 231 9 27 
-0.520325 -1.449477 -9.514518 231 9 29 
1.193154 -1.525672 -10.014670 231 11 37 
1.193743 -1.501805 -9.858003 233 12 41 
1.211538 -1.500000 -9.846154 233 12 41 
1.230769 -1.500000 -9.846154 230 10 36 
1.250000 -1.500000 -9.846154 230 10 36 
1.269231 -1.500000 -9.846154 229 9 31 
1.288462 -1.500000 -9.846154 227 7 29 
1.307692 -1.500000 -9.846154 225 8 25 
1.326923 -1.500000 -9.846154 224 7 24 
1.346154 -1.500000 -9.846154 197 20 32 
1.365385 -1.500000 -9.846154 249 72 84 
1.384615 -1.500000 -9.846154 202 123 118 
1.403846 -1.500000 -9.846154 207 128 123 
1.424789 -1.501805 -9.858003 166 151 131 
1.444043 -1.501805 -9.858003 167 152 132 
1.463297 -1.501805 -9.858003 167 157 138 
1.482551 -1.501805 -9.858003 170 159 140 
1.501805 -1.501805 -9.858003 172 159 141 
1.524729 -1.505428 -9.881785 172 159 141 
1.549637 -1.510896 -9.917676 175 162 143 
1.574727 -1.516403 -9.953828 175 162 143 
1.607843 -1.529412 -10.039216 175 162 143 
1.639506 -1.540741 -10.113581 175 162 143 
1.663366 -1.544554 -10.138614 170 162 142 
1.685254 -1.546468 -10.151177 170 162 142 
1.705081 -1.546468 -10.151177 169 161 139 
1.731343 -1.552239 -10.189054 169 161 139 
1.757803 -1.558052 -10.227216 168 160 138 
1.780000 -1.560000 -10.240000 168 160 138 
1.797101 -1.507246 -9.893720 160 154 131 
1.807692 -1.500000 -9.846154 160 152 130 
1.826923 -1.500000 -9.846154 160 152 130 
1.843938 -1.498199 -9.834333 159 151 129 
1.860911 -1.496403 -9.822542 158 150 127 
1.873357 -1.491039 -9.787335 156 149 126 
1.890215 -1.489260 -9.775657 156 149 126 
1.907032 -1.487485 -9.764005 155 144 123 
1.919240 -1.482185 -9.729217 149 138 117 
1.935943 -1.480427 -9.717675 150 135 111 
1.952607 -1.478673 -9.706161 145 131 106 
1.971564 -1.478673 -9.706161 143 127 100 
1.988166 -1.476923 -9.694674 145 129 103 
2.004728 -1.475177 -9.683215 137 75 64 
2.018868 -1.471698 -9.660378 103 41 31 
2.035336 -1.469965 -9.648999 180 16 31 
2.051765 -1.468235 -9.637647 187 23 38 
2.068155 -1.466510 -9.626322 213 11 32 
2.084507 -1.464789 -9.615024 214 13 33 
2.103286 -1.464789 -9.615024 226 14 43 
2.122066 -1.464789 -9.615024 224 12 40 
2.138335 -1.463071 -9.603751 223 11 37 
2.149533 -1.457944 -9.570093 222 10 36 
2.155633 -1.449477 -9.514518 225 10 28 
2.164162 -1.442775 -9.470520 224 9 27 
2.182659 -1.442775 -9.470520 224 10 23 
3.701493 -1.552239 -10.189054 218 10 28 
3.721393 -1.552239 -10.189054 218 10 28 
3.745953 -1.554172 -10.201743 215 9 26 
3.770574 -1.556110 -10.214464 214 8 25 
3.790524 -1.556110 -10.214464 215 9 19 
3.810474 -1.556110 -10.214464 214 8 18 
3.835206 -1.558052 -10.227216 215 8 21 
3.860000 -1.560000 -10.240000 218 11 24 
3.880000 -1.560000 -10.240000 216 11 28 
3.900000 -1.560000 -10.240000 215 9 26 
3.920000 -1.560000 -10.240000 214 8 27 
3.940000 -1.560000 -10.240000 214 8 27 
3.755102 -1.414966 -9.287982 208 8 19 
3.764706 -1.411765 -9.266969 208 10 13 
3.782805 -1.411765 -9.266969 207 8 12 
3.796610 -1.410169 -9.256497 207 9 10 
3.814689 -1.410169 -9.256497 208 10 11 
3.832768 -1.410169 -9.256497 204 10 14 
3.850847 -1.410169 -9.256497 203 8 13 
3.868927 -1.410169 -9.256497 199 9 19 
3.887006 -1.410169 -9.256497 194 3 13 
3.909502 -1.411765 -9.266969 180 39 39 
3.927602 -1.411765 -9.266969 255 118 118 
3.945701 -1.411765 -9.266969 199 152 131 
3.959322 -1.410169 -9.256497 195 148 128 
3.972912 -1.408578 -9.246050 175 163 135 
3.990971 -1.408578 -9.246050 177 166 138 
4.004509 -1.406990 -9.235625 172 170 139 
4.022548 -1.406990 -9.235625 172 170 139 
4.026966 -1.402247 -9.204494 172 170 139 
4.044944 -1.402247 -9.204494 173 171 140 
4.095130 -1.413364 -9.277463 173 171 140 
4.131968 -1.419795 -9.319681 174 172 141 
3.746408 -1.054945 -6.924767 174 177 145 
3.759932 -1.054945 -6.924767 176 179 146 
3.773457 -1.054945 -6.924767 176 179 146 
3.786982 -1.054945 -6.924767 174 180 146 
3.797297 -1.054054 -6.918919 174 180 146 
3.810811 -1.054054 -6.918919 174 179 148 
3.824324 -1.054054 -6.918919 174 179 148 
3.837838 -1.054054 -6.918919 173 178 149 
-3.919906 -1.488810 -9.648999 120 104 94 
-3.828902 -1.461272 -9.470520 127 111 101 
-3.806005 -1.459584 -9.459584 131 118 99 
-3.787529 -1.459584 -9.459584 135 122 104 
-3.773410 -1.461272 -9.470520 141 128 110 
-3.759259 -1.462963 -9.481482 144 131 113 
-3.745075 -1.464658 -9.492468 147 134 115 
-3.735192 -1.468060 -9.514518 149 136 118 
-3.725262 -1.471478 -9.536671 150 139 122 
-3.723977 -1.478363 -9.581286 152 141 124 
-3.722679 -1.485311 -9.626322 155 144 125 
-3.708235 -1.487059 -9.637647 157 146 127 
-3.689412 -1.487059 -9.637647 160 150 131 
-3.674912 -1.488810 -9.648999 162 151 132 
-3.660377 -1.490566 -9.660378 164 151 133 
-3.641510 -1.490566 -9.660378 169 156 138 
-3.626919 -1.492326 -9.671782 170 157 139 
-2.952790 -1.356223 -8.789700 179 168 149 
-2.932476 -1.354770 -8.780278 180 170 150 
-2.912205 -1.353319 -8.770878 177 169 151 
-2.891979 -1.351872 -8.761497 176 168 150 
-2.874866 -1.351872 -8.761497 175 166 149 
-2.854701 -1.350427 -8.752137 176 168 150 
-2.831557 -1.347548 -8.733476 175 166 149 
-2.814499 -1.347548 -8.733476 177 169 151 
-2.797441 -1.347548 -8.733476 183 169 156 
-2.777423 -1.346113 -8.724174 175 161 147 
-2.760383 -1.346113 -8.724174 167 94 96 
-2.740426 -1.344681 -8.714893 113 40 42 
-2.723404 -1.344681 -8.714893 196 15 47 
-2.706383 -1.344681 -8.714893 196 15 47 
-2.689362 -1.344681 -8.714893 211 10 44 
-2.675186 -1.346113 -8.724174 212 11 45 
-2.658147 -1.346113 -8.724174 218 10 44 
-2.638298 -1.344681 -8.714893 218 10 44 
-2.618491 -1.343252 -8.705632 219 9 39 
-2.593220 -1.338983 -8.677966 219 9 39 
-2.557308 -1.329127 -8.614090 220 9 33 
-2.527197 -1.322176 -8.569037 220 9 33 
-2.510460 -1.322176 -8.569037 220 10 31 
-5.788945 -3.175879 -20.582914 222 12 28 
-5.663366 -3.128713 -20.277227 222 12 28 
-5.514563 -3.067961 -19.883495 220 11 27 
-5.449275 -3.053140 -19.787439 220 11 27 
-5.397590 -3.045783 -19.739759 222 11 30 
-5.346154 -3.038461 -19.692308 220 10 29 
-5.307693 -3.038461 -19.692308 223 10 32 
-5.244019 -3.023923 -19.598085 223 10 32 
-4.735426 -2.834081 -18.367714 225 12 38 
-4.699552 -2.834081 -18.367714 224 10 37 
-4.663677 -2.834081 -18.367714 226 10 37 
-4.335732 -3.031175 -19.645084 228 12 41 
-4.297362 -3.031175 -19.645084 231 11 47 
-4.258993 -3.031175 -19.645084 231 11 47 
-4.220623 -3.031175 -19.645084 230 10 45 
-4.192307 -3.038461 -19.692308 231 11 47 
-4.153846 -3.038461 -19.692308 229 12 47 
-4.115385 -3.038461 -19.692308 229 12 47 
-4.086747 -3.045783 -19.739759 229 12 49 
-1.437352 -1.494090 -9.683215 233 10 47 
-1.413428 -1.488810 -9.648999 233 10 47 
-1.391304 -1.485311 -9.626322 233 10 47 
-1.366082 -1.478363 -9.581286 233 10 47 
-1.336427 -1.466357 -9.503480 233 11 45 
-1.316338 -1.464658 -9.492468 233 11 45 
-1.294798 -1.461272 -9.470520 233 11 43 
-1.273356 -1.457901 -9.448673 233 11 43 
-1.254902 -1.457901 -9.448673 233 11 45 
-1.161290 -1.456221 -9.437788 233 10 47 
-1.127021 -1.459584 -9.459584 233 12 39 
-1.108545 -1.459584 -9.459584 230 12 37 
-1.090069 -1.459584 -9.459584 233 15 41 
-1.071594 -1.459584 -9.459584 228 14 43 
-0.706977 -1.469767 -9.525581 208 18 50 
-0.686775 -1.466357 -9.503480 210 21 53 
-0.666667 -1.462963 -9.481482 221 11 45 
-0.647399 -1.461272 -9.470520 221 11 45 
-0.628902 -1.461272 -9.470520 226 10 33 
-0.610405 -1.461272 -9.470520 227 12 34 
-0.592593 -1.462963 -9.481482 232 10 28 
-0.574074 -1.462963 -9.481482 232 10 28 
-0.555556 -1.462963 -9.481482 232 10 28 
-0.537659 -1.464658 -9.492468 232 10 28 
1.193743 -1.521059 -9.858003 233 12 41 
1.211538 -1.519231 -9.846154 233 12 41 
1.230769 -1.519231 -9.846154 231 11 37 
1.250000 -1.519231 -9.846154 231 11 37 
1.267707 -1.517407 -9.834333 230 10 32 
1.286915 -1.517407 -9.834333 228 8 30 
1.306122 -1.517407 -9.834333 226 10 26 
1.325330 -1.517407 -9.834333 224 7 24 
1.346154 -1.519231 -9.846154 193 16 28 
1.365385 -1.519231 -9.846154 245 67 79 
1.384615 -1.519231 -9.846154 202 123 118 
1.403846 -1.519231 -9.846154 207 128 123 
1.423077 -1.519231 -9.846154 165 150 130 
1.442308 -1.519231 -9.846154 167 152 132 
1.461538 -1.519231 -9.846154 166 156 136 
1.480769 -1.519231 -9.846154 169 158 139 
1.501805 -1.521059 -9.858003 171 158 140 
1.522892 -1.522892 -9.869880 172 159 141 
1.547763 -1.528416 -9.905684 175 162 143 
1.569007 -1.530266 -9.917676 175 162 143 
1.600000 -1.541463 -9.990244 174 161 142 
1.633456 -1.554736 -10.076261 174 161 142 
1.659259 -1.560494 -10.113581 169 161 141 
1.679012 -1.560494 -10.113581 169 161 141 
1.700865 -1.562423 -10.126081 169 161 139 
1.724907 -1.566295 -10.151177 168 160 138 
1.751244 -1.572139 -10.189054 168 160 138 
1.771144 -1.572139 -10.189054 168 160 138 
1.794934 -1.524729 -9.881785 160 154 131 
1.807692 -1.519231 -9.846154 160 152 130 
1.826923 -1.519231 -9.846154 160 152 130 
1.843938 -1.517407 -9.834333 159 151 129 
1.860911 -1.515588 -9.822542 158 150 127 
1.871122 -1.508353 -9.775657 156 149 126 
1.887962 -1.506555 -9.764005 155 147 125 
1.900238 -1.501188 -9.729217 155 144 123 
1.912426 -1.495858 -9.694674 150 140 118 
1.929078 -1.494090 -9.683215 151 137 112 
1.947991 -1.494090 -9.683215 145 131 106 
1.964581 -1.492326 -9.671782 143 127 100 
1.981132 -1.490566 -9.660378 147 130 104 
2.000000 -1.490566 -9.660378 141 79 68 
2.016490 -1.488810 -9.648999 106 44 33 
2.030552 -1.485311 -9.626322 180 16 31 
2.044549 -1.481829 -9.603751 185 21 35 
2.060890 -1.480094 -9.592505 213 11 32 
2.077193 -1.478363 -9.581286 215 14 34 
2.095906 -1.478363 -9.581286 224 12 40 
2.112149 -1.476635 -9.570093 224 12 40 
2.130841 -1.476635 -9.570093 223 11 37 
2.144522 -1.473194 -9.547786 222 10 36 
2.153132 -1.466357 -9.503480 225 10 28 
2.161663 -1.459584 -9.459584 224 9 27 
2.180139 -1.459584 -9.459584 224 10 23 
3.701493 -1.572139 -10.189054 216 9 26 
3.721393 -1.572139 -10.189054 216 9 26 
3.745953 -1.574097 -10.201743 215 9 26 
3.765878 -1.574097 -10.201743 215 9 26 
3.790524 -1.576060 -10.214464 216 10 20 
3.810474 -1.576060 -10.214464 215 9 19 
3.835206 -1.578027 -10.227216 216 9 22 
3.860000 -1.580000 -10.240000 216 9 22 
3.880000 -1.580000 -10.240000 214 8 25 
3.900000 -1.580000 -10.240000 214 8 25 
3.920000 -1.580000 -10.240000 214 8 27 
3.940000 -1.580000 -10.240000 215 9 28 
3.960000 -1.580000 -10.240000 213 10 28 
3.733935 -1.425028 -9.235625 207 7 18 
3.751973 -1.425028 -9.235625 208 10 13 
3.765766 -1.423423 -9.225225 208 10 13 
3.775281 -1.420225 -9.204494 206 8 9 
3.793258 -1.420225 -9.204494 207 9 10 
3.811236 -1.420225 -9.204494 203 8 13 
3.829213 -1.420225 -9.204494 203 8 13 
3.847191 -1.420225 -9.204494 201 10 20 
3.865169 -1.420225 -9.204494 197 7 16 
3.887514 -1.421822 -9.214849 173 32 32 
3.905512 -1.421822 -9.214849 252 111 111 
3.923510 -1.421822 -9.214849 201 154 134 
3.941507 -1.421822 -9.214849 195 148 128 
3.955056 -1.420225 -9.204494 172 161 133 
3.973034 -1.420225 -9.204494 175 163 135 
3.991011 -1.420225 -9.204494 171 169 138 
4.004489 -1.418631 -9.194164 172 170 139 
4.017937 -1.417040 -9.183857 172 170 139 
4.035874 -1.417040 -9.183857 173 171 140 
4.053812 -1.417040 -9.183857 174 172 141 
4.067189 -1.415454 -9.173573 174 172 141 
4.089686 -1.417040 -9.183857 175 174 142 
3.746408 -1.068470 -6.924767 176 179 146 
3.759932 -1.068470 -6.924767 176 179 146 
3.773457 -1.068470 -6.924767 176 179 146 
3.786982 -1.068470 -6.924767 174 180 146 
3.800507 -1.068470 -6.924767 174 180 146 
3.810811 -1.067568 -6.918919 174 179 148 
3.824324 -1.067568 -6.918919 174 179 148 
-3.915294 -1.505882 -9.637647 118 107 91 
-3.824480 -1.478060 -9.459584 124 113 97 
-3.806005 -1.478060 -9.459584 130 119 104 
-3.787529 -1.478060 -9.459584 137 126 111 
-3.769053 -1.478060 -9.459584 141 128 119 
-3.754913 -1.479769 -9.470520 144 132 122 
-3.740741 -1.481481 -9.481482 143 136 125 
-3.726535 -1.483198 -9.492468 144 137 126 
-3.716609 -1.486643 -9.514518 147 140 126 
-3.710956 -1.491841 -9.547786 150 143 130 
-3.718310 -1.502347 -9.615024 151 145 127 
-3.703878 -1.504113 -9.626322 154 148 129 
-3.685076 -1.504113 -9.626322 158 149 129 
-3.670588 -1.505882 -9.637647 160 152 132 
-3.660377 -1.509434 -9.660378 163 152 133 
-3.641510 -1.509434 -9.660378 166 156 136 
-3.626919 -1.511216 -9.671782 168 160 140 
-2.949625 -1.371919 -8.780278 176 170 149 
-2.929336 -1.370450 -8.770878 176 170 149 
-2.912205 -1.370450 -8.770878 177 169 149 
-2.891979 -1.368984 -8.761497 177 169 149 
-2.871795 -1.367521 -8.752137 175 167 147 
-2.848614 -1.364606 -8.733476 175 167 147 
-2.831557 -1.364606 -8.733476 177 166 147 
-2.811502 -1.363152 -8.724174 182 172 153 
-2.794462 -1.363152 -8.724174 194 173 157 
-2.774468 -1.361702 -8.714893 176 156 140 
-2.757447 -1.361702 -8.714893 172 86 83 
-2.740426 -1.361702 -8.714893 123 37 34 
-2.720510 -1.360255 -8.705632 193 15 34 
-2.703507 -1.360255 -8.705632 196 17 37 
-2.689362 -1.361702 -8.714893 211 11 40 
-2.672340 -1.361702 -8.714893 214 13 42 
-2.655319 -1.361702 -8.714893 219 11 47 
-2.635494 -1.360255 -8.705632 218 10 46 
-2.618491 -1.360255 -8.705632 222 8 46 
-2.593220 -1.355932 -8.677966 220 7 45 
-2.557308 -1.345952 -8.614090 222 9 40 
-2.527197 -1.338912 -8.569037 222 9 40 
-2.510460 -1.338912 -8.569037 220 9 35 
-5.720000 -3.200000 -20.480000 223 10 34 
-5.514563 -3.106796 -19.883495 223 10 32 
-5.449275 -3.091787 -19.787439 222 9 31 
-5.410628 -3.091787 -19.787439 221 9 26 
-5.346154 -3.076923 -19.692308 224 12 29 
-5.307693 -3.076923 -19.692308 225 10 30 
-5.244019 -3.062201 -19.598085 225 10 30 
-4.903226 -2.949309 -18.875576 224 10 37 
-4.746068 -2.876405 -18.408989 224 10 37 
-4.699552 -2.869955 -18.367714 224 10 37 
-4.663677 -2.869955 -18.367714 226 10 35 
-1.366082 -1.497076 -9.581286 233 10 49 
-1.336427 -1.484919 -9.503480 233 10 49 
-1.316338 -1.483198 -9.492468 233 10 49 
-1.296296 -1.481481 -9.481482 233 10 49 
-1.273356 -1.476355 -9.448673 233 10 49 
-1.254902 -1.476355 -9.448673 231 10 51 
-1.159954 -1.472957 -9.426928 231 9 47 
-1.142857 -1.474654 -9.437788 233 11 45 
-1.124424 -1.474654 -9.437788 231 10 43 
-1.107266 -1.476355 -9.448673 234 11 39 
-1.088812 -1.476355 -9.448673 232 9 36 
-1.070358 -1.476355 -9.448673 233 13 33 
-1.053118 -1.478060 -9.459584 236 17 36 
-0.723898 -1.484919 -9.503480 156 35 49 
-0.704519 -1.483198 -9.492468 209 13 41 
-0.685185 -1.481481 -9.481482 213 17 44 
-0.665896 -1.479769 -9.470520 224 11 35 
-0.646651 -1.478060 -9.459584 225 12 36 
-0.628175 -1.478060 -9.459584 229 10 36 
-0.609700 -1.478060 -9.459584 229 10 36 
-0.591224 -1.478060 -9.459584 230 10 36 
-0.572748 -1.478060 -9.459584 231 11 37 
-0.555556 -1.481481 -9.481482 231 11 37 
-0.047548 -1.901932 -12.172362 233 10 37 
-0.023739 -1.899110 -12.154303 233 10 37 
0.000000 -1.899110 -12.154303 234 11 39 
0.023810 -1.904762 -12.190476 234 11 39 
0.047690 -1.907601 -12.208644 233 11 45 
1.211538 -1.538462 -9.846154 234 10 43 
1.229292 -1.536615 -9.834333 233 9 41 
1.247002 -1.534772 -9.822542 232 8 40 
1.266187 -1.534772 -9.822542 232 10 32 
1.285372 -1.534772 -9.822542 230 7 30 
1.304556 -1.534772 -9.822542 225 8 27 
1.323741 -1.534772 -9.822542 223 6 24 
1.342926 -1.534772 -9.822542 200 13 26 
1.363745 -1.536615 -9.834333 242 55 68 
1.382953 -1.536615 -9.834333 212 117 115 
1.402161 -1.536615 -9.834333 217 121 119 
1.423077 -1.538462 -9.846154 165 148 129 
1.442308 -1.538462 -9.846154 167 150 131 
1.461538 -1.538462 -9.846154 166 156 136 
1.480769 -1.538462 -9.846154 169 158 139 
1.500000 -1.538462 -9.846154 170 159 142 
1.521059 -1.540313 -9.858003 171 160 143 
1.544029 -1.544029 -9.881785 172 161 142 
1.567110 -1.547763 -9.905684 172 161 142 
1.592233 -1.553398 -9.941748 172 161 142 
1.627451 -1.568627 -10.039216 171 160 141 
1.653136 -1.574416 -10.076261 171 159 138 
1.676942 -1.578298 -10.101110 172 160 139 
1.696671 -1.578298 -10.101110 169 161 139 
1.718518 -1.580247 -10.113581 168 160 138 
1.738272 -1.580247 -10.113581 166 161 136 
1.753695 -1.576355 -10.088670 165 160 135 
1.766871 -1.570552 -10.051534 166 158 134 
1.771290 -1.557178 -9.965937 163 156 131 
1.775633 -1.544029 -9.881785 164 152 131 
1.792771 -1.542169 -9.869880 164 152 131 
1.807692 -1.538462 -9.846154 163 150 130 
1.826923 -1.538462 -9.846154 162 149 129 
1.843938 -1.536615 -9.834333 160 150 131 
1.860911 -1.534772 -9.822542 159 149 129 
1.868892 -1.525626 -9.764005 158 150 127 
1.881235 -1.520190 -9.729217 154 146 124 
1.893491 -1.514793 -9.694674 156 144 121 
1.907910 -1.511216 -9.671782 154 142 118 
1.924528 -1.509434 -9.660378 151 134 113 
1.943396 -1.509434 -9.660378 147 130 108 
1.962264 -1.509434 -9.660378 143 126 107 
1.978799 -1.507656 -9.648999 142 124 105 
1.995294 -1.505882 -9.637647 145 84 82 
2.011751 -1.504113 -9.626322 108 47 44 
2.025791 -1.500586 -9.603751 172 16 36 
2.042155 -1.498829 -9.592505 180 24 45 
2.053676 -1.493582 -9.558927 217 22 49 
2.069930 -1.491841 -9.547786 222 26 54 
2.088578 -1.491841 -9.547786 220 16 41 
2.107226 -1.491841 -9.547786 219 15 40 
2.125874 -1.491841 -9.547786 224 11 35 
2.139535 -1.488372 -9.525581 223 10 34 
2.150637 -1.483198 -9.492468 228 9 26 
2.159169 -1.476355 -9.448673 227 8 25 
2.177624 -1.476355 -9.448673 227 9 19 
3.721393 -1.592040 -10.189054 216 9 24 
3.741293 -1.592040 -10.189054 218 8 24 
3.761194 -1.592040 -10.189054 217 7 23 
3.785803 -1.594022 -10.201743 219 9 26 
3.810474 -1.596010 -10.214464 218 8 24 
3.830424 -1.596010 -10.214464 216 9 24 
3.855181 -1.598003 -10.227216 215 8 23 
3.875156 -1.598003 -10.227216 213 11 24 
3.900000 -1.600000 -10.240000 213 11 24 
3.920000 -1.600000 -10.240000 212 9 25 
3.940000 -1.600000 -10.240000 212 9 25 
3.960000 -1.600000 -10.240000 213 10 26 
3.715896 -1.443066 -9.235625 209 8 10 
3.721348 -1.438202 -9.204494 210 9 11 
3.739326 -1.438202 -9.204494 210 9 13 
3.753086 -1.436588 -9.194164 209 8 12 
3.766816 -1.434978 -9.183857 209 8 10 
3.784753 -1.434978 -9.183857 209 8 10 
3.802691 -1.434978 -9.183857 207 9 10 
3.820628 -1.434978 -9.183857 206 8 9 
3.838565 -1.434978 -9.183857 203 9 11 
3.856502 -1.434978 -9.183857 201 8 9 
3.878788 -1.436588 -9.194164 170 13 12 
3.896745 -1.436588 -9.194164 242 85 84 
3.914703 -1.436588 -9.194164 213 146 125 
3.932660 -1.436588 -9.194164 212 145 124 
3.950617 -1.436588 -9.194164 171 162 131 
3.964126 -1.434978 -9.183857 173 165 133 
3.982063 -1.434978 -9.183857 171 169 138 
3.995521 -1.433371 -9.173573 172 170 139 
4.013438 -1.433371 -9.173573 172 170 139 
4.026845 -1.431767 -9.163311 173 171 140 
4.044743 -1.431767 -9.163311 174 172 141 
4.062640 -1.431767 -9.163311 174 172 141 
4.085106 -1.433371 -9.173573 174 172 141 
4.103024 -1.433371 -9.173573 174 172 141 
3.746408 -1.081995 -6.924767 177 177 148 
3.759932 -1.081995 -6.924767 176 179 144 
3.773457 -1.081995 -6.924767 176 179 144 
3.790186 -1.082910 -6.930626 174 180 146 
3.800507 -1.081995 -6.924767 174 180 146 
3.814032 -1.081995 -6.924767 174 179 148 
-3.915294 -1.524706 -9.637647 118 107 91 
-3.820069 -1.494810 -9.448673 122 111 94 
-3.801615 -1.494810 -9.448673 127 115 101 
-3.783160 -1.494810 -9.448673 139 128 114 
-3.769053 -1.496536 -9.459584 141 128 119 
-3.750577 -1.496536 -9.459584 145 133 124 
-3.736416 -1.498266 -9.470520 144 137 126 
-3.722222 -1.500000 -9.481482 144 137 126 
-3.707995 -1.501738 -9.492468 147 140 126 
-3.706636 -1.508731 -9.536671 150 143 130 
-3.713951 -1.519343 -9.603751 151 145 127 
-3.699531 -1.521127 -9.615024 153 146 128 
-3.685076 -1.522914 -9.626322 159 151 131 
-3.670588 -1.524706 -9.637647 160 152 132 
-3.660377 -1.528302 -9.660378 167 157 138 
-3.641510 -1.528302 -9.660378 169 158 139 
-3.622642 -1.528302 -9.660378 167 159 139 
-2.985976 -1.398058 -8.837109 177 171 150 
-2.949625 -1.389068 -8.780278 177 171 150 
-2.929336 -1.387580 -8.770878 177 171 150 
-2.909091 -1.386096 -8.761497 177 169 149 
-2.888889 -1.384615 -8.752137 175 167 147 
-2.868730 -1.383138 -8.742796 175 167 147 
-2.848614 -1.381663 -8.733476 175 167 147 
-2.828541 -1.380192 -8.724174 177 166 147 
-2.808511 -1.378723 -8.714893 184 173 154 
-2.791489 -1.378723 -8.714893 190 170 154 
-2.774468 -1.378723 -8.714893 166 145 129 
-2.757447 -1.378723 -8.714893 168 82 79 
-2.737513 -1.377258 -8.705632 124 38 35 
-2.720510 -1.377258 -8.705632 193 15 34 
-2.703507 -1.377258 -8.705632 195 16 35 
-2.686504 -1.377258 -8.705632 211 11 40 
-2.669501 -1.377258 -8.705632 211 11 40 
-2.652497 -1.377258 -8.705632 217 9 45 
-2.635494 -1.377258 -8.705632 218 10 46 
-2.618491 -1.377258 -8.705632 222 8 46 
-2.593220 -1.372881 -8.677966 222 8 46 
-2.557308 -1.362776 -8.614090 222 9 40 
-2.540484 -1.362776 -8.614090 223 10 41 
-5.475728 -3.145631 -19.883495 223 10 32 
-5.410628 -3.130435 -19.787439 224 12 29 
-5.359036 -3.122892 -19.739759 224 12 29 
-5.307693 -3.115385 -19.692308 226 11 31 
-5.269231 -3.115385 -19.692308 227 12 32 
-4.858448 -2.958904 -18.703196 225 12 38 
-4.756757 -2.918919 -18.450451 224 10 37 
-4.699552 -2.905830 -18.367714 223 9 36 
-4.663677 -2.905830 -18.367714 225 9 34 
-1.369285 -1.519343 -9.603751 233 10 49 
-1.336427 -1.503480 -9.503480 233 10 49 
-1.317865 -1.503480 -9.503480 233 10 49 
-1.296296 -1.500000 -9.481482 233 10 49 
-1.273356 -1.494810 -9.448673 233 10 49 
-1.254902 -1.494810 -9.448673 234 14 54 
-1.158621 -1.489655 -9.416092 234 11 50 
-1.141542 -1.491369 -9.426928 234 12 46 
-1.123130 -1.491369 -9.426928 233 11 45 
-1.104718 -1.491369 -9.426928 241 18 46 
-1.086306 -1.491369 -9.426928 243 20 48 
-1.067894 -1.491369 -9.426928 249 29 49 
-1.050691 -1.493088 -9.437788 231 12 31 
-0.778679 -1.501738 -9.492468 132 92 87 
-0.760139 -1.501738 -9.492468 122 82 78 
-0.741599 -1.501738 -9.492468 158 38 51 
-0.723059 -1.501738 -9.492468 155 34 47 
-0.703704 -1.500000 -9.481482 209 13 41 
-0.685185 -1.500000 -9.481482 225 30 57 
-0.665127 -1.496536 -9.459584 223 10 34 
-0.645905 -1.494810 -9.448673 225 12 36 
-0.627451 -1.494810 -9.448673 230 12 37 
-0.608997 -1.494810 -9.448673 230 12 37 
-0.590542 -1.494810 -9.448673 233 12 39 
-0.572088 -1.494810 -9.448673 231 11 37 
-0.554273 -1.496536 -9.459584 233 12 39 
-0.071322 -1.925706 -12.172362 232 9 34 
-0.047478 -1.922849 -12.154303 232 9 36 
-0.023739 -1.922849 -12.154303 232 9 36 
0.000000 -1.922849 -12.154303 233 10 37 
0.023774 -1.925706 -12.172362 233 10 37 
0.047619 -1.928571 -12.190476 231 10 43 
0.071642 -1.934328 -12.226866 233 11 45 
1.210084 -1.555822 -9.834333 234 10 43 
1.227818 -1.553957 -9.822542 232 8 40 
1.244019 -1.550239 -9.799043 230 6 38 
1.263158 -1.550239 -9.799043 230 7 30 
1.282297 -1.550239 -9.799043 230 7 30 
1.302994 -1.552096 -9.810779 226 9 28 
1.322156 -1.552096 -9.810779 224 7 26 
1.341317 -1.552096 -9.810779 200 13 26 
1.360479 -1.552096 -9.810779 235 48 61 
1.381295 -1.553957 -9.822542 206 111 109 
1.400480 -1.553957 -9.822542 214 119 117 
1.421369 -1.555822 -9.834333 164 147 127 
1.440576 -1.555822 -9.834333 167 150 131 
1.459784 -1.555822 -9.834333 166 156 136 
1.478992 -1.555822 -9.834333 167 157 138 
1.500000 -1.557692 -9.846154 170 159 142 
1.519231 -1.557692 -9.846154 170 159 142 
1.542169 -1.561446 -9.869880 172 161 142 
1.565217 -1.565217 -9.893720 172 161 142 
1.588378 -1.569007 -9.917676 171 160 141 
1.619512 -1.580488 -9.990244 170 159 140 
1.647059 -1.588235 -10.039216 171 159 138 
1.672817 -1.594096 -10.076261 171 159 138 
1.692497 -1.594096 -10.076261 168 160 138 
1.714286 -1.596059 -10.088670 168 160 138 
1.733990 -1.596059 -10.088670 166 161 136 
1.749386 -1.592138 -10.063882 165 160 135 
1.764706 -1.588235 -10.039216 165 157 132 
1.756333 -1.563329 -9.881785 163 156 131 
1.773494 -1.561446 -9.869880 164 152 131 
1.792771 -1.561446 -9.869880 164 152 131 
1.807692 -1.557692 -9.846154 163 150 130 
1.826923 -1.557692 -9.846154 162 149 129 
1.843938 -1.555822 -9.834333 159 149 129 
1.858683 -1.552096 -9.810779 158 147 128 
1.862233 -1.539192 -9.729217 156 149 126 
1.874556 -1.533728 -9.694674 154 146 124 
1.889020 -1.530106 -9.671782 156 144 121 
1.905660 -1.528302 -9.660378 153 140 117 
1.922261 -1.526502 -9.648999 152 135 114 
1.941107 -1.526502 -9.648999 148 131 109 
1.957647 -1.524706 -9.637647 143 126 107 
1.976471 -1.524706 -9.637647 145 128 109 
1.990610 -1.521127 -9.615024 148 87 85 
2.007034 -1.519343 -9.603751 112 51 49 
2.021053 -1.515790 -9.581286 174 18 39 
2.035006 -1.512252 -9.558927 181 25 46 
2.048894 -1.508731 -9.536671 218 23 50 
2.065116 -1.506977 -9.525581 227 31 58 
2.083721 -1.506977 -9.525581 221 17 43 
2.102326 -1.506977 -9.525581 218 13 39 
2.120930 -1.506977 -9.525581 225 12 36 
2.137050 -1.505226 -9.514518 224 11 35 
2.148148 -1.500000 -9.481482 229 10 27 
2.156682 -1.493088 -9.437788 228 9 26 
2.175115 -1.493088 -9.437788 228 10 20 
3.741293 -1.611940 -10.189054 217 7 23 
3.761194 -1.611940 -10.189054 219 9 26 
3.781095 -1.611940 -10.189054 219 9 26 
3.800995 -1.611940 -10.189054 219 9 26 
3.820895 -1.611940 -10.189054 218 10 26 
3.850374 -1.615960 -10.214464 218 10 26 
3.870324 -1.615960 -10.214464 212 9 23 
3.895131 -1.617977 -10.227216 212 9 23 
3.915106 -1.617977 -10.227216 211 8 24 
3.935081 -1.617977 -10.227216 212 9 25 
3.955056 -1.617977 -10.227216 213 10 26 
3.975031 -1.617977 -10.227216 212 9 25 
3.686801 -1.449664 -9.163311 211 10 12 
3.704698 -1.449664 -9.163311 210 9 11 
3.722595 -1.449664 -9.163311 210 9 13 
3.740492 -1.449664 -9.163311 209 8 12 
3.758389 -1.449664 -9.163311 209 8 10 
3.776286 -1.449664 -9.163311 209 8 10 
3.794183 -1.449664 -9.163311 207 9 10 
3.812081 -1.449664 -9.163311 206 8 9 
3.829978 -1.449664 -9.163311 203 9 11 
3.847875 -1.449664 -9.163311 200 6 8 
3.870101 -1.451288 -9.173573 170 13 12 
3.888018 -1.451288 -9.173573 224 67 65 
3.905935 -1.451288 -9.173573 210 142 122 
3.923852 -1.451288 -9.173573 219 152 131 
3.941769 -1.451288 -9.173573 170 161 130 
3.959687 -1.451288 -9.173573 172 163 132 
3.973154 -1.449664 -9.163311 170 168 137 
3.991051 -1.449664 -9.163311 172 170 139 
4.008948 -1.449664 -9.163311 172 170 139 
4.026845 -1.449664 -9.163311 173 171 140 
4.044743 -1.449664 -9.163311 173 171 140 
4.062640 -1.449664 -9.163311 174 172 141 
4.075978 -1.448045 -9.153072 174 172 141 
4.093855 -1.448045 -9.153072 174 172 141 
4.111732 -1.448045 -9.153072 175 174 140 
3.742373 -1.098305 -6.942373 176 176 147 
3.746408 -1.095520 -6.924767 177 177 148 
3.763113 -1.096447 -6.930626 176 179 144 
3.776650 -1.096447 -6.930626 176 179 144 
3.790186 -1.096447 -6.930626 173 178 145 
3.803723 -1.096447 -6.930626 173 178 145 
3.826972 -1.099237 -6.948261 173 178 147 
-3.915294 -1.543529 -9.637647 123 107 90 
-3.820069 -1.513264 -9.448673 127 112 95 
-3.801615 -1.513264 -9.448673 133 117 104 
-3.783160 -1.513264 -9.448673 139 123 110 
-3.769053 -1.515012 -9.459584 144 127 117 
-3.750577 -1.515012 -9.459584 147 131 120 
-3.736416 -1.516763 -9.470520 148 134 121 
-3.722222 -1.518519 -9.481482 149 135 122 
-3.703704 -1.518519 -9.481482 147 138 123 
-3.706636 -1.527357 -9.536671 151 142 126 
-3.713951 -1.538101 -9.603751 153 144 129 
-3.695194 -1.538101 -9.603751 154 145 130 
-3.680751 -1.539906 -9.615024 159 148 133 
-3.670588 -1.543529 -9.637647 162 150 136 
-3.660377 -1.547170 -9.660378 162 154 136 
-3.641510 -1.547170 -9.660378 165 156 138 
-3.622642 -1.547170 -9.660378 166 161 140 
-3.608028 -1.548996 -9.671782 166 161 140 
-2.969957 -1.407725 -8.789700 179 170 150 
-2.949625 -1.406217 -8.780278 176 170 147 
-2.929336 -1.404711 -8.770878 176 170 147 
-2.905983 -1.401709 -8.752137 175 169 146 
-2.885806 -1.400213 -8.742796 173 168 145 
-2.865672 -1.398721 -8.733476 177 166 145 
-2.845580 -1.397231 -8.724174 177 166 145 
-2.825532 -1.395745 -8.714893 178 165 147 
-2.808511 -1.395745 -8.714893 185 172 154 
-2.791489 -1.395745 -8.714893 191 160 143 
-2.774468 -1.395745 -8.714893 161 129 113 
-2.757447 -1.395745 -8.714893 171 64 62 
-2.737513 -1.394261 -8.705632 142 35 33 
-2.720510 -1.394261 -8.705632 202 13 29 
-2.703507 -1.394261 -8.705632 204 14 30 
-2.686504 -1.394261 -8.705632 215 9 28 
-2.669501 -1.394261 -8.705632 216 10 30 
-2.652497 -1.394261 -8.705632 220 10 31 
-2.635494 -1.394261 -8.705632 222 11 32 
-2.618491 -1.394261 -8.705632 222 11 34 
-2.593220 -1.389830 -8.677966 222 11 34 
-2.560000 -1.381053 -8.623158 223 11 37 
-2.543158 -1.381053 -8.623158 223 11 37 
-5.371981 -3.169082 -19.787439 224 12 40 
-5.307693 -3.153846 -19.692308 225 11 40 
-5.256595 -3.146283 -19.645084 225 11 40 
-5.205741 -3.138756 -19.598085 227 10 40 
-5.046729 -3.065421 -19.140186 227 10 40 
-4.974478 -3.044084 -19.006960 226 10 37 
-4.858448 -2.995434 -18.703196 227 11 38 
-4.756757 -2.954955 -18.450451 226 10 35 
-4.720721 -2.954955 -18.450451 225 9 34 
-4.684685 -2.954955 -18.450451 226 9 30 
-1.388042 -1.538101 -9.603751 233 10 51 
-1.358140 -1.525581 -9.525581 233 10 51 
-1.336427 -1.522042 -9.503480 233 10 47 
-1.317865 -1.522042 -9.503480 233 10 47 
-1.296296 -1.518519 -9.481482 233 10 47 
-1.271889 -1.511521 -9.437788 233 10 47 
-1.253456 -1.511521 -9.437788 231 11 49 
-1.157290 -1.506315 -9.405281 232 12 52 
-1.141542 -1.509781 -9.426928 235 12 53 
-1.121839 -1.508046 -9.416092 234 11 52 
-1.104718 -1.509781 -9.426928 233 15 52 
-1.085057 -1.508046 -9.416092 236 19 56 
-1.066667 -1.508046 -9.416092 232 20 48 
-1.049482 -1.509781 -9.426928 228 17 45 
-1.032258 -1.511521 -9.437788 220 28 50 
-0.851852 -1.518519 -9.481482 125 109 98 
-0.833333 -1.518519 -9.481482 124 107 97 
-0.814815 -1.518519 -9.481482 124 105 96 
-0.796296 -1.518519 -9.481482 122 103 94 
-0.778679 -1.520278 -9.492468 129 84 83 
-0.760139 -1.520278 -9.492468 121 75 75 
-0.741599 -1.520278 -9.492468 155 31 50 
-0.722222 -1.518519 -9.481482 161 37 56 
-0.703704 -1.518519 -9.481482 211 17 50 
-0.684393 -1.516763 -9.470520 215 20 54 
-0.665127 -1.515012 -9.459584 223 11 39 
-0.645905 -1.513264 -9.448673 224 12 40 
-0.626728 -1.511521 -9.437788 233 12 41 
-0.607595 -1.509781 -9.426928 233 12 41 
-0.589183 -1.509781 -9.426928 233 11 45 
-0.572088 -1.513264 -9.448673 231 10 43 
-0.071322 -1.949480 -12.172362 232 9 34 
-0.047548 -1.949480 -12.172362 233 11 33 
-0.023739 -1.946588 -12.154303 233 11 33 
0.000000 -1.949480 -12.172362 233 10 35 
0.023810 -1.952381 -12.190476 234 11 37 
0.047690 -1.955291 -12.208644 233 12 41 
0.071642 -1.958209 -12.226866 233 12 41 
0.097859 -2.006116 -12.525994 233 10 47 
1.208633 -1.573141 -9.822542 233 10 37 
1.224880 -1.569378 -9.799043 231 9 27 
1.242533 -1.567503 -9.787335 230 8 26 
1.261649 -1.567503 -9.787335 231 8 20 
1.280765 -1.567503 -9.787335 231 8 20 
1.299881 -1.567503 -9.787335 227 11 25 
1.320574 -1.569378 -9.799043 225 9 23 
1.339713 -1.569378 -9.799043 202 14 27 
1.358852 -1.569378 -9.799043 235 46 60 
1.379641 -1.571257 -9.810779 213 105 101 
1.398802 -1.571257 -9.810779 227 119 114 
1.419664 -1.573141 -9.822542 172 144 121 
1.438849 -1.573141 -9.822542 175 147 125 
1.458034 -1.573141 -9.822542 167 154 133 
1.477218 -1.573141 -9.822542 168 155 134 
1.498199 -1.575030 -9.834333 170 157 139 
1.519231 -1.576923 -9.846154 171 158 140 
1.540313 -1.578821 -9.858003 171 160 141 
1.563329 -1.582630 -9.881785 171 160 141 
1.586457 -1.586457 -9.905684 171 160 141 
1.617540 -1.598051 -9.978076 170 159 140 
1.645043 -1.605875 -10.026928 171 158 140 
1.666667 -1.607843 -10.039216 171 158 140 
1.690418 -1.611794 -10.063882 168 160 140 
1.710074 -1.611794 -10.063882 168 160 140 
1.727607 -1.609816 -10.051534 166 161 138 
1.747239 -1.609816 -10.051534 165 160 137 
1.751825 -1.596107 -9.965937 166 156 132 
1.756333 -1.582630 -9.881785 165 155 131 
1.773494 -1.580723 -9.869880 165 154 128 
1.790614 -1.578821 -9.858003 164 152 127 
1.807692 -1.576923 -9.846154 163 151 128 
1.826923 -1.576923 -9.846154 162 150 127 
1.843938 -1.575030 -9.834333 161 149 125 
1.856459 -1.569378 -9.799043 161 149 125 
1.857820 -1.554502 -9.706161 156 149 124 
1.870130 -1.548996 -9.671782 154 147 122 
1.886792 -1.547170 -9.660378 156 144 121 
1.903416 -1.545347 -9.648999 150 138 115 
1.920000 -1.543529 -9.637647 150 135 113 
1.936545 -1.541716 -9.626322 146 131 109 
1.953052 -1.539906 -9.615024 141 128 108 
1.969519 -1.538101 -9.603751 144 132 111 
1.985948 -1.536300 -9.592505 144 96 96 
2.002339 -1.534503 -9.581286 110 62 62 
2.013986 -1.529137 -9.547786 165 21 54 
2.030268 -1.527357 -9.536671 170 26 59 
2.044135 -1.523810 -9.514518 211 11 47 
2.060325 -1.522042 -9.503480 213 14 49 
2.078886 -1.522042 -9.503480 224 12 40 
2.099884 -1.523810 -9.514518 224 12 40 
2.118467 -1.523810 -9.514518 229 10 36 
2.132097 -1.520278 -9.492468 227 9 35 
2.148148 -1.518519 -9.481482 227 10 31 
2.156682 -1.511521 -9.437788 227 10 31 
2.160183 -1.501144 -9.372997 227 10 29 
2.176000 -1.499429 -9.362286 226 9 28 
3.722772 -1.623762 -10.138614 216 8 12 
3.742574 -1.623762 -10.138614 218 10 14 
3.767038 -1.625775 -10.151177 218 11 24 
3.786865 -1.625775 -10.151177 218 11 24 
3.811414 -1.627792 -10.163772 218 9 30 
3.836025 -1.629814 -10.176397 218 9 30 
3.860697 -1.631841 -10.189054 216 9 24 
3.880597 -1.631841 -10.189054 215 8 23 
3.905355 -1.633873 -10.201743 214 8 14 
3.925280 -1.633873 -10.201743 214 8 14 
3.945205 -1.633873 -10.201743 216 8 12 
3.960199 -1.631841 -10.189054 216 8 12 
3.990025 -1.635910 -10.214464 216 8 10 
3.678571 -1.464286 -9.142858 212 10 21 
3.696429 -1.464286 -9.142858 210 8 19 
3.718436 -1.465922 -9.153072 210 8 15 
3.736313 -1.465922 -9.153072 209 7 14 
3.754190 -1.465922 -9.153072 209 8 10 
3.772067 -1.465922 -9.153072 209 8 10 
3.789944 -1.465922 -9.153072 207 9 10 
3.807821 -1.465922 -9.153072 206 8 9 
3.825698 -1.465922 -9.153072 203 9 9 
3.843575 -1.465922 -9.153072 201 8 7 
3.861453 -1.465922 -9.153072 182 12 10 
3.883669 -1.467561 -9.163311 225 55 53 
3.901566 -1.467561 -9.163311 224 133 121 
3.919463 -1.467561 -9.163311 236 145 132 
3.937360 -1.467561 -9.163311 174 159 130 
3.950838 -1.465922 -9.153072 177 161 132 
3.968715 -1.465922 -9.153072 171 167 134 
3.986592 -1.465922 -9.153072 173 170 137 
4.004469 -1.465922 -9.153072 172 170 139 
4.022346 -1.465922 -9.153072 173 171 140 
4.040224 -1.465922 -9.153072 173 171 140 
4.058101 -1.465922 -9.153072 173 171 140 
4.071429 -1.464286 -9.142858 173 171 140 
4.089286 -1.464286 -9.142858 174 172 141 
4.107143 -1.464286 -9.142858 174 173 137 
4.129609 -1.465922 -9.153072 175 174 138 
4.156775 -1.469205 -9.173573 174 173 139 
4.179372 -1.470852 -9.183857 175 174 140 
3.748727 -1.113752 -6.954160 174 177 145 
3.755932 -1.111864 -6.942373 176 179 146 
3.769491 -1.111864 -6.942373 176 179 144 
3.786260 -1.112808 -6.948261 176 179 144 
3.799830 -1.112808 -6.948261 175 176 141 
3.813401 -1.112808 -6.948261 175 176 141 
-3.919906 -1.564193 -9.648999 123 107 90 
-3.815668 -1.529954 -9.437788 129 113 96 
-3.797235 -1.529954 -9.437788 134 118 106 
-3.778802 -1.529954 -9.437788 139 123 110 
-3.764706 -1.531719 -9.448673 143 126 116 
-3.750577 -1.533487 -9.459584 146 129 119 
-3.732102 -1.533487 -9.459584 147 133 119 
-3.717919 -1.535260 -9.470520 149 135 122 
-3.703704 -1.537037 -9.481482 147 138 123 
-3.702326 -1.544186 -9.525581 151 142 126 
-3.705263 -1.553216 -9.581286 153 144 129 
-3.695194 -1.556858 -9.603751 155 146 131 
-3.676436 -1.556858 -9.603751 159 148 133 
-3.666275 -1.560517 -9.626322 162 150 136 
-3.656066 -1.564193 -9.648999 162 154 136 
-3.641510 -1.566038 -9.660378 165 156 138 
-3.622642 -1.566038 -9.660378 165 160 139 
-3.603774 -1.566038 -9.660378 166 161 140 
-2.966774 -1.423365 -8.780278 177 169 149 
-2.946467 -1.421842 -8.770878 176 170 147 
-2.923077 -1.418803 -8.752137 175 169 146 
-2.899787 -1.415778 -8.733476 175 169 146 
-2.882729 -1.415778 -8.733476 173 168 145 
-2.862620 -1.414271 -8.724174 177 166 145 
-2.842553 -1.412766 -8.714893 177 166 145 
-2.822529 -1.411265 -8.705632 178 165 147 
-2.805526 -1.411265 -8.705632 185 172 154 
-2.791489 -1.412766 -8.714893 192 161 144 
-2.774468 -1.412766 -8.714893 148 116 100 
-2.754516 -1.411265 -8.705632 147 40 37 
-2.737513 -1.411265 -8.705632 143 37 34 
-2.720510 -1.411265 -8.705632 205 15 32 
-2.703507 -1.411265 -8.705632 205 15 32 
-2.686504 -1.411265 -8.705632 216 10 30 
-2.669501 -1.411265 -8.705632 217 11 31 
-2.652497 -1.411265 -8.705632 220 10 31 
-2.635494 -1.411265 -8.705632 220 10 31 
-2.618491 -1.411265 -8.705632 220 9 33 
-2.593220 -1.406780 -8.677966 222 11 34 
-2.576271 -1.406780 -8.677966 222 10 36 
-5.269231 -3.192308 -19.692308 224 10 39 
-5.046729 -3.102804 -19.140186 226 9 39 
-4.974478 -3.081207 -19.006960 226 10 37 
-4.836364 -3.018182 -18.618181 226 10 37 
-4.756757 -2.990991 -18.450451 225 9 34 
-4.720721 -2.990991 -18.450451 226 10 35 
-1.388042 -1.556858 -9.603751 233 10 51 
-1.358140 -1.544186 -9.525581 231 8 49 
-1.336427 -1.540603 -9.503480 231 9 45 
-1.314815 -1.537037 -9.481482 233 10 47 
-1.294798 -1.535260 -9.470520 231 9 45 
-1.270426 -1.528193 -9.426928 233 10 47 
-1.252014 -1.528193 -9.426928 231 11 49 
-1.157290 -1.524684 -9.405281 232 12 52 
-1.140230 -1.526437 -9.416092 235 12 53 
-1.121839 -1.526437 -9.416092 234 11 52 
-1.103448 -1.526437 -9.416092 231 13 50 
-1.085057 -1.526437 -9.416092 229 12 49 
-1.066667 -1.526437 -9.416092 225 13 41 
-1.048276 -1.526437 -9.416092 228 17 45 
-1.031070 -1.528193 -9.426928 217 24 46 
-1.014994 -1.531719 -9.448673 191 0 20 
-0.907407 -1.537037 -9.481482 121 100 91 
-0.888889 -1.537037 -9.481482 122 105 95 
-0.870370 -1.537037 -9.481482 123 106 96 
-0.851852 -1.537037 -9.481482 123 106 96 
-0.833333 -1.537037 -9.481482 122 105 95 
-0.814815 -1.537037 -9.481482 121 102 92 
-0.796296 -1.537037 -9.481482 119 100 90 
-0.777778 -1.537037 -9.481482 121 75 75 
-0.760139 -1.538818 -9.492468 118 72 72 
-0.740741 -1.537037 -9.481482 154 30 49 
-0.722222 -1.537037 -9.481482 171 48 67 
-0.702890 -1.535260 -9.470520 212 18 52 
-0.683603 -1.533487 -9.459584 209 14 48 
-0.664360 -1.531719 -9.448673 222 10 38 
-0.645161 -1.529954 -9.437788 224 12 40 
-0.626007 -1.528193 -9.426928 233 12 41 
-0.606897 -1.526437 -9.416092 231 10 39 
-0.589183 -1.528193 -9.426928 231 10 43 
-0.071429 -1.976190 -12.190476 233 10 35 
-0.047548 -1.973254 -12.172362 233 11 33 
-0.023774 -1.973254 -12.172362 234 12 35 
0.000000 -1.973254 -12.172362 234 11 37 
0.023810 -1.976190 -12.190476 233 10 35 
0.047761 -1.982090 -12.226866 233 12 41 
0.071642 -1.982090 -12.226866 233 12 41 
0.095665 -1.985052 -12.245142 233 10 47 
0.544218 -1.806803 -11.145578 233 10 37 
0.565986 -1.806803 -11.145578 233 11 43 
1.205742 -1.588517 -9.799043 232 9 36 
1.221957 -1.584725 -9.775657 231 9 27 
1.239571 -1.582837 -9.764005 230 8 26 
1.258641 -1.582837 -9.764005 230 7 19 
1.279236 -1.584725 -9.775657 231 8 20 
1.298329 -1.584725 -9.775657 226 10 24 
1.317422 -1.584725 -9.775657 224 8 21 
1.338112 -1.586619 -9.787335 202 14 27 
1.357228 -1.586619 -9.787335 229 40 54 
1.376344 -1.586619 -9.787335 211 102 98 
1.395460 -1.586619 -9.787335 234 126 121 
1.417964 -1.590419 -9.810779 173 145 123 
1.437126 -1.590419 -9.810779 174 146 124 
1.456287 -1.590419 -9.810779 167 154 133 
1.475449 -1.590419 -9.810779 169 156 136 
1.494611 -1.590419 -9.810779 170 157 139 
1.517407 -1.594238 -9.834333 171 158 140 
1.538462 -1.596154 -9.846154 170 159 140 
1.561446 -1.600000 -9.869880 170 159 140 
1.586457 -1.605804 -9.905684 170 159 140 
1.615572 -1.615572 -9.965937 170 159 140 
1.643032 -1.623472 -10.014670 171 158 140 
1.666667 -1.627451 -10.039216 171 158 140 
1.688344 -1.629448 -10.051534 168 160 140 
1.707976 -1.629448 -10.051534 168 160 140 
1.727607 -1.629448 -10.051534 166 161 138 
1.745098 -1.627451 -10.039216 165 160 137 
1.743341 -1.607748 -9.917676 166 156 132 
1.754217 -1.600000 -9.869880 165 155 131 
1.771360 -1.598075 -9.858003 164 152 127 
1.790614 -1.598075 -9.858003 164 152 127 
1.805522 -1.594238 -9.834333 163 151 128 
1.824730 -1.594238 -9.834333 161 149 125 
1.843938 -1.594238 -9.834333 161 149 125 
1.856459 -1.588517 -9.799043 161 149 125 
1.855621 -1.571598 -9.694674 156 149 124 
1.867925 -1.566038 -9.660378 154 147 122 
1.884570 -1.564193 -9.648999 155 143 120 
1.898942 -1.560517 -9.626322 150 138 115 
1.915493 -1.558685 -9.615024 150 135 113 
1.932005 -1.556858 -9.603751 145 130 108 
1.948478 -1.555035 -9.592505 142 130 109 
1.967213 -1.555035 -9.592505 142 130 109 
1.978997 -1.549592 -9.558927 144 96 96 
1.993015 -1.545984 -9.536671 113 65 66 
2.009302 -1.544186 -9.525581 167 22 55 
2.025552 -1.542393 -9.514518 170 26 59 
2.041763 -1.540603 -9.503480 210 10 46 
2.060325 -1.540603 -9.503480 211 11 47 
2.078886 -1.540603 -9.503480 223 11 39 
2.095017 -1.538818 -9.492468 223 11 39 
2.113557 -1.538818 -9.492468 229 10 36 
2.129630 -1.537037 -9.481482 227 9 35 
2.145665 -1.535260 -9.470520 227 10 31 
2.154200 -1.528193 -9.426928 229 11 32 
2.152794 -1.514253 -9.340935 227 10 29 
2.166098 -1.510808 -9.319681 225 8 27 
2.176871 -1.505669 -9.287982 222 8 24 
3.666667 -1.627451 -10.039216 217 9 15 
3.690798 -1.629448 -10.051534 217 9 13 
3.714988 -1.631450 -10.063882 219 11 15 
3.739237 -1.633456 -10.076261 218 11 24 
3.772840 -1.639506 -10.113581 218 11 24 
3.792593 -1.639506 -10.113581 218 9 30 
3.826518 -1.645601 -10.151177 218 9 30 
3.851117 -1.647643 -10.163772 216 9 24 
3.870968 -1.647643 -10.163772 214 7 22 
3.900497 -1.651741 -10.189054 215 9 15 
3.920398 -1.651741 -10.189054 215 9 15 
3.940299 -1.651741 -10.189054 216 8 12 
3.960199 -1.651741 -10.189054 216 8 12 
3.980099 -1.651741 -10.189054 216 8 10 
3.678571 -1.482143 -9.142858 212 10 21 
3.696429 -1.482143 -9.142858 210 8 19 
3.714286 -1.482143 -9.142858 209 7 14 
3.732143 -1.482143 -9.142858 209 7 14 
3.750000 -1.482143 -9.142858 209 8 10 
3.767857 -1.482143 -9.142858 209 8 10 
3.785714 -1.482143 -9.142858 207 9 10 
3.803571 -1.482143 -9.142858 206 8 9 
3.821429 -1.482143 -9.142858 203 9 9 
3.839286 -1.482143 -9.142858 201 8 7 
3.857143 -1.482143 -9.142858 183 13 11 
3.879330 -1.483799 -9.153072 206 36 34 
3.897207 -1.483799 -9.153072 206 114 102 
3.915084 -1.483799 -9.153072 237 146 133 
3.932961 -1.483799 -9.153072 174 159 130 
3.946429 -1.482143 -9.142858 176 160 131 
3.964286 -1.482143 -9.142858 170 166 133 
3.982143 -1.482143 -9.142858 173 170 137 
4.000000 -1.482143 -9.142858 173 171 140 
4.017857 -1.482143 -9.142858 174 172 141 
4.035714 -1.482143 -9.142858 173 171 140 
4.053571 -1.482143 -9.142858 173 171 140 
4.071429 -1.482143 -9.142858 173 171 140 
4.084727 -1.480491 -9.132665 174 172 141 
4.102564 -1.480491 -9.132665 174 173 137 
4.125000 -1.482143 -9.142858 174 173 137 
4.147486 -1.483799 -9.153072 175 174 140 
4.165363 -1.483799 -9.153072 177 175 141 
4.192609 -1.487122 -9.173573 177 175 144 
3.726222 -1.180444 -7.281778 176 179 146 
3.764706 -1.132140 -6.983802 176 179 146 
3.775128 -1.131176 -6.977853 174 177 145 
3.788756 -1.131176 -6.977853 174 178 143 
3.802385 -1.131176 -6.977853 174 178 143 
3.825790 -1.134073 -6.995730 177 178 144 
-3.919906 -1.583039 -9.648999 124 106 92 
-3.815668 -1.548387 -9.437788 131 113 99 
-3.788506 -1.544828 -9.416092 135 117 102 
-3.770115 -1.544828 -9.416092 140 121 107 
-3.756042 -1.546605 -9.426928 145 128 111 
-3.746251 -1.550173 -9.448673 147 129 112 
-3.727797 -1.550173 -9.448673 148 133 115 
-3.713626 -1.551963 -9.459584 151 135 118 
-3.699422 -1.553757 -9.470520 149 136 120 
-3.689455 -1.557358 -9.492468 153 139 123 
-3.700935 -1.570094 -9.570093 153 142 128 
-3.686550 -1.571930 -9.581286 156 144 130 
-3.676436 -1.575616 -9.603751 159 148 133 
-3.661972 -1.577465 -9.615024 162 150 136 
-3.651765 -1.581177 -9.637647 162 153 138 
-3.641510 -1.584906 -9.660378 165 156 140 
-3.622642 -1.584906 -9.660378 167 159 139 
-3.608028 -1.586777 -9.671782 168 160 140 
-3.019523 -1.457701 -8.885033 177 170 147 
-2.966774 -1.440514 -8.780278 179 171 148 
-2.940171 -1.435897 -8.752137 179 168 149 
-2.916844 -1.432836 -8.733476 178 167 148 
-2.896699 -1.431310 -8.724174 176 168 148 
-2.876596 -1.429787 -8.714893 175 167 147 
-2.859575 -1.429787 -8.714893 177 166 147 
-2.839532 -1.428268 -8.705632 177 166 147 
-2.822529 -1.428268 -8.705632 178 165 147 
-2.805526 -1.428268 -8.705632 186 173 155 
-2.788523 -1.428268 -8.705632 201 158 145 
-2.771520 -1.428268 -8.705632 147 103 90 
-2.754516 -1.428268 -8.705632 156 28 31 
-2.737513 -1.428268 -8.705632 160 32 34 
-2.717622 -1.426752 -8.696391 208 14 32 
-2.700637 -1.426752 -8.696391 217 23 41 
-2.686504 -1.428268 -8.705632 216 12 33 
-2.669501 -1.428268 -8.705632 216 12 33 
-2.652497 -1.428268 -8.705632 222 11 34 
-2.635494 -1.428268 -8.705632 220 9 33 
-2.618491 -1.428268 -8.705632 220 10 31 
-2.598726 -1.426752 -8.696391 222 11 32 
-2.581741 -1.426752 -8.696391 222 11 34 
-4.974478 -3.118330 -19.006960 227 11 38 
-4.792793 -3.027027 -18.450451 227 11 38 
-4.746068 -3.020225 -18.408989 228 12 41 
-4.720721 -3.027027 -18.450451 227 10 40 
-1.358140 -1.562791 -9.525581 231 10 39 
-1.336427 -1.559165 -9.503480 230 10 36 
-1.314815 -1.555556 -9.481482 231 11 37 
-1.294798 -1.553757 -9.470520 233 11 43 
-1.270426 -1.546605 -9.426928 233 11 43 
-1.252014 -1.546605 -9.426928 233 10 51 
-1.158621 -1.544828 -9.416092 233 9 53 
-1.140230 -1.544828 -9.416092 231 10 51 
