ply
format ascii 1.0
element vertex 1154
property float x
property float y
property float z
property uchar red
property uchar green
property uchar blue
end_header
3.697112 2.822795 -6.395004 123 141 132 
3.706708 2.820593 -6.390016 123 141 132 
3.716290 2.818394 -6.385035 123 141 132 
-7.645051 12.286690 -27.959044 120 112 92 
-7.438127 12.040133 -27.397993 122 113 93 
-7.384615 12.040133 -27.397993 122 113 97 
-7.331104 12.040133 -27.397993 120 111 96 
-7.401361 12.244898 -27.863945 120 111 96 
-7.372014 12.286690 -27.959044 119 110 95 
-7.317406 12.286690 -27.959044 121 109 95 
-7.337931 12.413794 -28.248276 121 109 95 
-7.307959 12.456747 -28.346022 122 109 93 
-7.252595 12.456747 -28.346022 122 109 93 
-7.147766 12.371134 -28.151203 122 109 91 
-7.068493 12.328767 -28.054794 122 109 91 
-7.037801 12.371134 -28.151203 122 109 91 
-7.006896 12.413794 -28.248276 122 109 91 
-7.000000 12.500000 -28.444445 121 110 91 
-6.944445 12.500000 -28.444445 122 111 92 
1.148825 4.699739 -10.694517 128 120 100 
1.168188 4.693612 -10.680573 128 119 106 
1.189048 4.693612 -10.680573 128 119 106 
1.208333 4.687500 -10.666667 127 120 106 
1.229167 4.687500 -10.666667 127 120 106 
1.250000 4.687500 -10.666667 127 121 102 
1.270833 4.687500 -10.666667 126 120 101 
1.291667 4.687500 -10.666667 127 119 101 
1.312500 4.687500 -10.666667 125 116 99 
1.331599 4.681405 -10.652796 123 112 95 
1.352406 4.681405 -10.652796 120 109 92 
1.373212 4.681405 -10.652796 120 108 96 
1.394018 4.681405 -10.652796 120 108 96 
1.416667 4.687500 -10.666667 118 114 99 
1.437500 4.687500 -10.666667 122 117 103 
1.458333 4.687500 -10.666667 125 118 102 
1.479167 4.687500 -10.666667 125 118 102 
1.503917 4.699739 -10.694517 129 118 103 
1.543677 4.693612 -10.680573 129 118 103 
1.566580 4.699739 -10.694517 128 116 102 
0.992393 2.106495 -4.793447 122 118 101 
1.000584 2.104033 -4.787843 122 118 101 
1.009346 2.102804 -4.785047 122 117 103 
1.018692 2.102804 -4.785047 122 117 103 
1.028037 2.102804 -4.785047 123 116 103 
1.036778 2.101576 -4.782253 123 116 103 
1.044898 2.099125 -4.776676 122 118 101 
1.053613 2.097902 -4.773893 122 118 101 
1.062937 2.097902 -4.773893 121 117 100 
1.321010 2.218115 -5.047443 119 117 100 
1.328413 2.214022 -5.038130 119 117 100 
1.337431 2.212661 -5.035034 119 118 98 
1.346437 2.211302 -5.031941 119 118 98 
1.354601 2.208589 -5.025767 122 118 99 
1.363581 2.207235 -5.022686 122 118 99 
1.372549 2.205882 -5.019608 121 116 102 
1.382353 2.205882 -5.019608 119 115 101 
1.393865 2.208589 -5.025767 119 115 101 
1.531250 2.343750 -5.333333 117 114 101 
1.540664 2.342225 -5.329864 117 114 101 
1.551074 2.342225 -5.329864 117 114 101 
1.559454 2.339181 -5.322937 115 115 101 
1.567813 2.336145 -5.316029 115 115 101 
1.575130 2.331606 -5.305699 115 115 101 
1.577320 2.319588 -5.278350 113 113 99 
1.583548 2.313625 -5.264781 114 112 99 
1.588725 2.306214 -5.247918 114 112 99 
1.595908 2.301790 -5.237852 117 115 99 
1.605112 2.300319 -5.234505 116 113 98 
1.614304 2.298851 -5.231162 114 112 97 
1.623484 2.297384 -5.227824 114 112 97 
1.633695 2.297384 -5.227824 114 111 101 
1.643906 2.297384 -5.227824 114 111 101 
1.654116 2.297384 -5.227824 111 113 101 
1.664327 2.297384 -5.227824 111 113 101 
1.673469 2.295918 -5.224490 110 114 103 
1.683674 2.295918 -5.224490 111 115 104 
1.693878 2.295918 -5.224490 110 114 101 
1.704082 2.295918 -5.224490 110 114 101 
1.714286 2.295918 -5.224490 110 112 100 
1.724490 2.295918 -5.224490 110 112 100 
1.734694 2.295918 -5.224490 110 112 102 
1.744898 2.295918 -5.224490 110 112 102 
1.755102 2.295918 -5.224490 112 114 104 
1.765306 2.295918 -5.224490 112 114 104 
1.776643 2.297384 -5.227824 111 114 99 
1.787995 2.298851 -5.231162 111 114 99 
2.564103 2.884615 -6.564103 114 121 107 
2.574860 2.882306 -6.558847 113 119 106 
2.585600 2.880000 -6.553600 115 119 109 
2.624000 2.880000 -6.553600 115 120 107 
2.634692 2.877698 -6.548361 114 119 104 
2.647482 2.877698 -6.548361 114 119 104 
2.662400 2.880000 -6.553600 112 122 103 
2.675200 2.880000 -6.553600 112 122 103 
1.990741 2.083333 -4.740741 117 122 102 
2.000000 2.083333 -4.740741 117 122 104 
2.009259 2.083333 -4.740741 117 122 104 
2.018518 2.083333 -4.740741 115 123 104 
2.027778 2.083333 -4.740741 115 123 104 
2.037037 2.083333 -4.740741 112 124 104 
2.046296 2.083333 -4.740741 112 124 104 
2.055556 2.083333 -4.740741 111 123 103 
2.064815 2.083333 -4.740741 112 124 104 
2.074074 2.083333 -4.740741 112 124 104 
3.598394 2.891566 -6.579920 119 136 126 
3.608347 2.889246 -6.574639 120 137 127 
3.621188 2.889246 -6.574639 120 137 129 
3.631115 2.886929 -6.569366 120 137 129 
3.643945 2.886929 -6.569366 118 138 129 
3.653846 2.884615 -6.564103 118 138 129 
3.666667 2.884615 -6.564103 118 138 129 
3.679487 2.884615 -6.564103 118 138 129 
3.692308 2.884615 -6.564103 118 138 127 
3.705128 2.884615 -6.564103 118 138 127 
3.717949 2.884615 -6.564103 121 139 128 
3.697112 2.810304 -6.395004 123 141 132 
3.706708 2.808112 -6.390016 124 142 134 
-7.779310 12.358621 -28.248276 120 113 90 
-7.645051 12.232082 -27.959044 120 114 93 
-7.463087 12.026846 -27.489933 120 114 93 
-7.409396 12.026846 -27.489933 120 113 97 
-7.380471 12.067340 -27.582491 119 112 96 
-7.426621 12.232082 -27.959044 121 109 95 
-7.372014 12.232082 -27.959044 122 111 96 
-7.342466 12.273973 -28.054794 122 111 94 
-7.337931 12.358621 -28.248276 121 110 93 
-7.333333 12.444445 -28.444445 122 111 92 
-7.277778 12.444445 -28.444445 121 110 91 
-7.172414 12.358621 -28.248276 124 111 92 
-7.092783 12.316152 -28.151203 122 109 91 
-7.037801 12.316152 -28.151203 124 111 90 
-7.006896 12.358621 -28.248276 124 111 90 
-7.000000 12.444445 -28.444445 122 112 90 
-6.944445 12.444445 -28.444445 122 112 90 
-6.888889 12.444445 -28.444445 122 111 92 
1.126467 4.672751 -10.680573 125 122 100 
1.147327 4.672751 -10.680573 125 122 100 
1.168188 4.672751 -10.680573 127 120 104 
1.187500 4.666667 -10.666667 127 120 104 
1.208333 4.666667 -10.666667 127 120 106 
1.229167 4.666667 -10.666667 127 120 106 
1.250000 4.666667 -10.666667 126 119 103 
1.270833 4.666667 -10.666667 126 119 103 
1.289987 4.660598 -10.652796 125 119 96 
1.310793 4.660598 -10.652796 123 118 95 
1.331599 4.660598 -10.652796 124 115 88 
1.352406 4.660598 -10.652796 121 111 85 
1.373212 4.660598 -10.652796 121 109 84 
1.395833 4.666667 -10.666667 121 109 84 
1.416667 4.666667 -10.666667 120 112 92 
1.437500 4.666667 -10.666667 125 117 97 
1.458333 4.666667 -10.666667 126 119 105 
1.481095 4.672751 -10.680573 125 118 104 
0.994721 2.102053 -4.804692 121 116 102 
1.001755 2.097133 -4.793447 121 116 102 
1.011118 2.097133 -4.793447 122 115 104 
1.019287 2.094682 -4.787843 122 115 104 
1.028037 2.093458 -4.785047 121 116 104 
1.037383 2.093458 -4.785047 122 117 105 
1.046118 2.092236 -4.782253 121 116 102 
1.054842 2.091015 -4.779463 121 116 102 
1.064799 2.092236 -4.782253 121 116 102 
1.355433 2.200123 -5.028852 117 113 98 
1.363581 2.197425 -5.022686 117 113 98 
1.372549 2.196079 -5.019608 117 115 99 
1.383201 2.197425 -5.022686 116 113 98 
1.541667 2.333333 -5.333333 110 112 98 
1.551074 2.331815 -5.329864 111 114 99 
1.559454 2.328785 -5.322937 114 112 99 
1.567813 2.325763 -5.316029 114 112 99 
1.576150 2.322748 -5.309138 114 112 99 
1.577320 2.309278 -5.278350 113 111 98 
1.582530 2.301862 -5.261400 112 112 98 
1.587708 2.294494 -5.244558 113 113 99 
1.594888 2.290096 -5.234505 113 113 97 
1.604087 2.288633 -5.231162 112 112 96 
1.613274 2.287173 -5.227824 113 111 96 
1.622449 2.285714 -5.224490 113 111 96 
1.632653 2.285714 -5.224490 114 112 97 
1.642857 2.285714 -5.224490 114 112 97 
1.653061 2.285714 -5.224490 113 111 98 
1.663265 2.285714 -5.224490 113 111 98 
1.673469 2.285714 -5.224490 113 110 100 
1.683674 2.285714 -5.224490 114 111 101 
1.693878 2.285714 -5.224490 114 112 99 
1.704082 2.285714 -5.224490 116 113 100 
1.714286 2.285714 -5.224490 112 115 100 
1.724490 2.285714 -5.224490 112 115 100 
1.734694 2.285714 -5.224490 112 114 102 
1.744898 2.285714 -5.224490 114 116 103 
1.755102 2.285714 -5.224490 114 116 103 
1.765306 2.285714 -5.224490 114 116 103 
1.775510 2.285714 -5.224490 114 116 101 
1.786854 2.287173 -5.227824 114 116 101 
1.800511 2.291560 -5.237852 114 116 99 
1.990741 2.074074 -4.740741 112 121 109 
2.000000 2.074074 -4.740741 113 122 110 
2.009259 2.074074 -4.740741 113 122 110 
2.018518 2.074074 -4.740741 112 123 108 
2.027778 2.074074 -4.740741 112 123 108 
2.037037 2.074074 -4.740741 111 122 107 
2.046296 2.074074 -4.740741 111 122 107 
2.055556 2.074074 -4.740741 112 123 108 
2.064815 2.074074 -4.740741 112 123 108 
3.585542 2.878715 -6.579920 119 137 124 
3.595506 2.876405 -6.574639 119 136 126 
3.608347 2.876405 -6.574639 120 137 127 
3.621188 2.876405 -6.574639 120 137 129 
3.631115 2.874098 -6.569366 120 137 129 
3.641026 2.871795 -6.564103 118 138 131 
3.653846 2.871795 -6.564103 118 138 131 
3.666667 2.871795 -6.564103 118 138 129 
3.679487 2.871795 -6.564103 118 138 129 
3.692308 2.871795 -6.564103 118 139 125 
3.705128 2.871795 -6.564103 118 139 125 
3.717949 2.871795 -6.564103 121 139 126 
3.730769 2.871795 -6.564103 122 140 127 
-7.645051 12.177474 -27.959044 119 113 92 
-7.488215 12.013468 -27.582491 119 113 92 
-7.434343 12.013468 -27.582491 119 112 96 
-7.481229 12.177474 -27.959044 119 112 96 
-7.426621 12.177474 -27.959044 121 109 95 
-7.397260 12.219178 -28.054794 121 109 95 
-7.342466 12.219178 -28.054794 121 110 93 
-7.363322 12.346021 -28.346022 122 111 94 
-7.333333 12.388889 -28.444445 123 113 93 
-7.277778 12.388889 -28.444445 122 111 92 
-7.197232 12.346021 -28.346022 124 111 92 
-7.117241 12.303449 -28.248276 124 111 92 
-7.062069 12.303449 -28.248276 124 111 90 
-7.006896 12.303449 -28.248276 126 113 93 
-7.000000 12.388889 -28.444445 123 113 91 
-6.944445 12.388889 -28.444445 123 113 91 
-6.888889 12.388889 -28.444445 124 114 95 
1.105606 4.651890 -10.680573 126 120 99 
1.125000 4.645833 -10.666667 124 121 99 
1.145833 4.645833 -10.666667 124 121 99 
1.166667 4.645833 -10.666667 126 119 103 
1.187500 4.645833 -10.666667 126 119 103 
1.208333 4.645833 -10.666667 126 119 105 
1.229167 4.645833 -10.666667 126 119 105 
1.250000 4.645833 -10.666667 126 119 103 
1.269181 4.639792 -10.652796 126 119 103 
1.289987 4.639792 -10.652796 125 119 96 
1.310793 4.639792 -10.652796 123 118 95 
1.331599 4.639792 -10.652796 124 115 88 
1.352406 4.639792 -10.652796 122 113 86 
1.375000 4.645833 -10.666667 121 109 84 
1.395833 4.645833 -10.666667 121 109 84 
1.416667 4.645833 -10.666667 118 110 90 
1.437500 4.645833 -10.666667 125 117 97 
1.458333 4.645833 -10.666667 123 116 103 
1.481095 4.651890 -10.680573 125 118 104 
1.004106 2.092669 -4.804692 119 115 101 
1.012896 2.091442 -4.801876 121 114 103 
1.021675 2.090217 -4.799063 122 115 104 
1.031049 2.090217 -4.799063 121 116 104 
1.037989 2.085330 -4.787843 121 116 104 
1.046729 2.084112 -4.785047 121 116 102 
1.056075 2.084112 -4.785047 121 116 102 
1.559454 2.318388 -5.322937 114 112 99 
1.567813 2.315380 -5.316029 116 113 100 
1.576150 2.312378 -5.309138 114 112 99 
1.577320 2.298969 -5.278350 116 113 100 
1.581515 2.290116 -5.258023 113 113 99 
1.586692 2.282789 -5.241203 114 114 100 
1.593870 2.278416 -5.231162 114 114 98 
1.603063 2.276962 -5.227824 113 113 97 
1.612245 2.275510 -5.224490 116 113 98 
1.622449 2.275510 -5.224490 116 113 98 
1.632653 2.275510 -5.224490 116 113 98 
1.642857 2.275510 -5.224490 117 115 99 
1.653061 2.275510 -5.224490 117 114 101 
1.663265 2.275510 -5.224490 117 114 101 
1.673469 2.275510 -5.224490 117 114 103 
1.683674 2.275510 -5.224490 116 113 102 
1.693878 2.275510 -5.224490 117 114 101 
1.704082 2.275510 -5.224490 118 115 103 
1.714286 2.275510 -5.224490 115 117 103 
1.724490 2.275510 -5.224490 115 117 103 
1.734694 2.275510 -5.224490 115 117 105 
1.744898 2.275510 -5.224490 115 117 105 
1.755102 2.275510 -5.224490 115 117 105 
1.765306 2.275510 -5.224490 115 117 105 
1.775510 2.275510 -5.224490 115 117 103 
1.785714 2.275510 -5.224490 115 117 103 
1.797064 2.276962 -5.227824 115 117 101 
1.990741 2.064815 -4.740741 113 122 110 
2.000000 2.064815 -4.740741 113 122 110 
2.009259 2.064815 -4.740741 113 122 110 
2.018518 2.064815 -4.740741 111 122 107 
2.027778 2.064815 -4.740741 111 122 107 
2.037037 2.064815 -4.740741 111 122 107 
2.046296 2.064815 -4.740741 111 122 107 
2.055556 2.064815 -4.740741 111 122 107 
2.064815 2.064815 -4.740741 111 122 107 
3.585542 2.865864 -6.579920 120 138 125 
3.595506 2.863563 -6.574639 120 137 127 
3.608347 2.863563 -6.574639 120 137 127 
3.621188 2.863563 -6.574639 120 137 129 
3.631115 2.861267 -6.569366 120 137 129 
3.641026 2.858974 -6.564103 118 138 131 
3.653846 2.858974 -6.564103 118 138 131 
3.666667 2.858974 -6.564103 118 138 129 
3.682438 2.861267 -6.569366 118 138 129 
3.692308 2.858974 -6.564103 118 139 125 
3.705128 2.858974 -6.564103 119 140 126 
3.717949 2.858974 -6.564103 121 139 126 
3.730769 2.858974 -6.564103 122 140 127 
-7.535836 12.122867 -27.959044 121 110 91 
-7.506849 12.164384 -28.054794 122 111 92 
-7.452055 12.164384 -28.054794 122 111 92 
-7.422680 12.206185 -28.151203 122 111 92 
-7.367698 12.206185 -28.151203 120 113 90 
-7.363322 12.290657 -28.346022 120 113 90 
-7.333333 12.333333 -28.444445 123 113 91 
-7.277778 12.333333 -28.444445 123 113 91 
-7.222222 12.333333 -28.444445 123 113 91 
-7.141869 12.290657 -28.346022 123 113 91 
-7.086505 12.290657 -28.346022 123 113 93 
-7.031142 12.290657 -28.346022 123 113 93 
-7.000000 12.333333 -28.444445 124 114 95 
-6.944445 12.333333 -28.444445 123 113 93 
-6.888889 12.333333 -28.444445 123 113 91 
-7.235294 13.058824 -30.117647 123 113 91 
0.976623 4.612987 -10.638961 129 118 103 
0.997403 4.612987 -10.638961 128 116 102 
1.019506 4.618986 -10.652796 129 118 103 
1.041667 4.625000 -10.666667 127 118 103 
1.062500 4.625000 -10.666667 128 120 104 
1.083333 4.625000 -10.666667 127 119 101 
1.104167 4.625000 -10.666667 128 120 102 
1.125000 4.625000 -10.666667 128 120 102 
1.145833 4.625000 -10.666667 128 120 102 
1.166667 4.625000 -10.666667 128 120 104 
1.187500 4.625000 -10.666667 128 120 104 
1.208333 4.625000 -10.666667 127 118 103 
1.229167 4.625000 -10.666667 128 120 104 
1.250000 4.625000 -10.666667 128 120 102 
1.270833 4.625000 -10.666667 127 119 101 
1.289987 4.618986 -10.652796 126 118 96 
1.310793 4.618986 -10.652796 125 117 95 
1.331599 4.618986 -10.652796 127 117 91 
1.354167 4.625000 -10.666667 123 114 87 
1.375000 4.625000 -10.666667 121 112 83 
1.395833 4.625000 -10.666667 120 111 82 
1.416667 4.625000 -10.666667 118 110 88 
1.437500 4.625000 -10.666667 123 115 93 
1.458333 4.625000 -10.666667 125 116 101 
1.481095 4.631030 -10.680573 126 117 102 
1.578196 2.304997 -5.316029 115 115 101 
1.576304 2.287186 -5.274952 115 115 101 
1.581515 2.279846 -5.258023 115 115 101 
1.585678 2.271100 -5.237852 115 115 101 
1.592853 2.266752 -5.227824 117 114 103 
1.602041 2.265306 -5.224490 117 114 103 
1.612245 2.265306 -5.224490 117 114 101 
1.622449 2.265306 -5.224490 118 115 103 
1.632653 2.265306 -5.224490 115 117 101 
1.642857 2.265306 -5.224490 116 119 102 
1.653061 2.265306 -5.224490 117 118 102 
1.663265 2.265306 -5.224490 117 118 102 
1.672403 2.263862 -5.221160 119 117 100 
1.682600 2.263862 -5.221160 118 116 99 
1.692798 2.263862 -5.221160 119 117 100 
1.704082 2.265306 -5.224490 118 116 99 
1.714286 2.265306 -5.224490 116 119 102 
1.724490 2.265306 -5.224490 116 119 102 
1.734694 2.265306 -5.224490 114 119 102 
1.744898 2.265306 -5.224490 114 119 102 
1.755102 2.265306 -5.224490 114 119 102 
1.765306 2.265306 -5.224490 113 118 101 
1.775510 2.265306 -5.224490 115 117 105 
1.785714 2.265306 -5.224490 116 118 106 
1.797064 2.266752 -5.227824 115 117 105 
1.808429 2.268199 -5.231162 116 118 106 
1.981481 2.055556 -4.740741 112 120 113 
1.990741 2.055556 -4.740741 112 120 113 
2.000000 2.055556 -4.740741 112 121 111 
2.009259 2.055556 -4.740741 112 121 111 
2.018518 2.055556 -4.740741 112 121 109 
2.027778 2.055556 -4.740741 112 121 109 
2.037037 2.055556 -4.740741 113 122 110 
2.046296 2.055556 -4.740741 112 121 109 
2.055556 2.055556 -4.740741 115 121 110 
2.067207 2.057937 -4.746234 115 121 110 
3.035714 2.642857 -6.095238 113 130 122 
3.047619 2.642857 -6.095238 111 131 120 
3.588424 2.855305 -6.585209 121 136 129 
3.595506 2.850722 -6.574639 120 137 127 
3.608347 2.850722 -6.574639 120 137 127 
3.621188 2.850722 -6.574639 120 137 129 
3.634029 2.850722 -6.574639 120 137 129 
3.643945 2.848436 -6.569366 120 137 131 
3.656776 2.848436 -6.569366 120 137 131 
3.669607 2.848436 -6.569366 121 138 132 
3.682438 2.848436 -6.569366 121 138 132 
3.695269 2.848436 -6.569366 122 139 131 
3.705128 2.846154 -6.564103 121 138 130 
3.717949 2.846154 -6.564103 122 139 131 
3.730769 2.846154 -6.564103 122 139 131 
-1.816918 2.048667 -4.746234 116 108 83 
-1.806601 2.047481 -4.743486 117 109 85 
-1.796296 2.046296 -4.740741 119 107 83 
-1.787037 2.046296 -4.740741 119 107 83 
-1.777778 2.046296 -4.740741 120 108 85 
-1.768519 2.046296 -4.740741 120 108 85 
-1.759259 2.046296 -4.740741 120 107 91 
-7.535836 12.068259 -27.959044 122 111 92 
-7.532646 12.151203 -28.151203 122 111 92 
-7.477663 12.151203 -28.151203 122 111 92 
-7.422680 12.151203 -28.151203 122 111 92 
-7.418685 12.235294 -28.346022 120 113 90 
-7.363322 12.235294 -28.346022 120 113 90 
-7.333333 12.277778 -28.444445 122 112 90 
-7.277778 12.277778 -28.444445 122 112 90 
-7.222222 12.277778 -28.444445 122 112 90 
-7.141869 12.235294 -28.346022 122 112 90 
-7.086505 12.235294 -28.346022 123 113 93 
-7.055555 12.277778 -28.444445 123 113 93 
-7.024390 12.320558 -28.543554 123 113 93 
-6.968641 12.320558 -28.543554 122 111 92 
-6.961403 12.407018 -28.743860 122 112 90 
2.500000 13.812500 -32.000000 130 119 104 
0.955844 4.592208 -10.638961 129 118 103 
0.976623 4.592208 -10.638961 129 118 103 
0.996109 4.586252 -10.625162 129 118 103 
1.016861 4.586252 -10.625162 128 116 102 
1.041667 4.604167 -10.666667 126 117 102 
1.062500 4.604167 -10.666667 127 118 103 
1.083333 4.604167 -10.666667 128 120 102 
1.104167 4.604167 -10.666667 127 119 101 
1.125000 4.604167 -10.666667 127 119 101 
1.145833 4.604167 -10.666667 127 119 101 
1.166667 4.604167 -10.666667 127 118 103 
1.187500 4.604167 -10.666667 127 118 103 
1.208333 4.604167 -10.666667 127 118 103 
1.229167 4.604167 -10.666667 127 118 103 
1.250000 4.604167 -10.666667 127 119 101 
1.270833 4.604167 -10.666667 127 119 101 
1.289987 4.598179 -10.652796 126 118 96 
1.310793 4.598179 -10.652796 125 117 95 
1.331599 4.598179 -10.652796 127 117 91 
1.354167 4.604167 -10.666667 124 115 88 
1.375000 4.604167 -10.666667 122 113 84 
1.395833 4.604167 -10.666667 120 111 82 
1.416667 4.604167 -10.666667 120 113 90 
1.437500 4.604167 -10.666667 123 115 93 
1.458333 4.604167 -10.666667 126 117 102 
1.576304 2.276883 -5.274952 115 115 101 
1.580500 2.268121 -5.254651 115 115 101 
1.584665 2.259425 -5.234505 114 114 100 
1.592853 2.256541 -5.227824 117 114 103 
1.602041 2.255102 -5.224490 118 115 105 
1.612245 2.255102 -5.224490 118 115 103 
1.621415 2.253665 -5.221160 119 117 104 
1.631613 2.253665 -5.221160 116 119 102 
1.641810 2.253665 -5.221160 116 119 102 
1.652008 2.253665 -5.221160 116 117 101 
1.662205 2.253665 -5.221160 117 118 102 
1.671338 2.252229 -5.217834 120 118 101 
1.681529 2.252229 -5.217834 119 117 100 
1.691720 2.252229 -5.217834 119 117 100 
1.702996 2.253665 -5.221160 119 117 100 
1.713193 2.253665 -5.221160 116 119 102 
1.723391 2.253665 -5.221160 116 119 102 
1.733588 2.253665 -5.221160 114 119 102 
1.743786 2.253665 -5.221160 114 119 102 
1.753983 2.253665 -5.221160 114 119 102 
1.764181 2.253665 -5.221160 114 119 102 
1.774379 2.253665 -5.221160 116 118 106 
1.785714 2.255102 -5.224490 116 118 106 
1.795918 2.255102 -5.224490 116 118 106 
1.807275 2.256541 -5.227824 116 118 106 
1.972222 2.046296 -4.740741 112 120 113 
1.981481 2.046296 -4.740741 112 120 113 
1.990741 2.046296 -4.740741 112 120 113 
2.000000 2.046296 -4.740741 112 121 111 
2.009259 2.046296 -4.740741 112 121 111 
2.017351 2.045113 -4.737999 112 121 109 
2.027778 2.046296 -4.740741 113 122 110 
2.037037 2.046296 -4.740741 113 122 110 
2.046296 2.046296 -4.740741 113 122 110 
2.055556 2.046296 -4.740741 115 121 110 
2.067207 2.048667 -4.746234 115 121 110 
3.023809 2.630952 -6.095238 113 130 122 
3.035714 2.630952 -6.095238 113 130 122 
3.047619 2.630952 -6.095238 111 131 120 
3.059524 2.630952 -6.095238 111 131 120 
3.073715 2.632911 -6.099777 113 131 116 
3.085629 2.632911 -6.099777 113 131 116 
3.588424 2.842444 -6.585209 120 135 128 
3.598394 2.840161 -6.579920 120 137 127 
3.608347 2.837881 -6.574639 120 137 127 
3.621188 2.837881 -6.574639 120 137 129 
3.634029 2.837881 -6.574639 120 137 129 
3.643945 2.835605 -6.569366 120 137 131 
3.656776 2.835605 -6.569366 120 137 131 
3.669607 2.835605 -6.569366 121 138 132 
3.682438 2.835605 -6.569366 121 138 132 
3.695269 2.835605 -6.569366 121 138 130 
3.705128 2.833333 -6.564103 121 138 130 
3.717949 2.833333 -6.564103 121 138 130 
3.730769 2.833333 -6.564103 122 139 131 
-1.835458 2.039397 -4.746234 118 108 87 
-1.826188 2.039397 -4.746234 118 108 87 
-1.815866 2.038217 -4.743486 119 106 88 
-1.805556 2.037037 -4.740741 119 106 88 
-1.796296 2.037037 -4.740741 119 105 90 
-1.786003 2.035859 -4.737999 120 107 91 
-1.776750 2.035859 -4.737999 118 108 89 
-1.767496 2.035859 -4.737999 118 108 89 
-1.757225 2.034682 -4.735260 120 109 90 
-1.748988 2.035859 -4.737999 118 108 89 
-7.532646 12.096220 -28.151203 122 112 90 
-7.529412 12.179931 -28.346022 121 111 87 
-7.474049 12.179931 -28.346022 122 112 88 
-7.418685 12.179931 -28.346022 121 110 91 
-7.388889 12.222222 -28.444445 121 110 91 
-7.333333 12.222222 -28.444445 124 110 94 
-7.277778 12.222222 -28.444445 122 109 93 
-7.222222 12.222222 -28.444445 124 111 92 
-7.166667 12.222222 -28.444445 124 111 92 
-7.111111 12.222222 -28.444445 122 111 92 
-7.129825 12.350877 -28.743860 123 113 93 
-7.073684 12.350877 -28.743860 124 111 92 
-7.017544 12.350877 -28.743860 124 111 92 
-3.257271 7.874721 -18.326622 122 111 92 
-3.221477 7.874721 -18.326622 125 114 98 
-3.185682 7.874721 -18.326622 124 113 97 
-3.142857 7.857143 -18.285715 127 114 98 
-3.107143 7.857143 -18.285715 127 114 98 
2.125000 13.750000 -32.000000 130 119 104 
2.187500 13.750000 -32.000000 129 118 103 
2.250000 13.750000 -32.000000 130 119 104 
2.312500 13.750000 -32.000000 130 119 104 
2.260223 13.085502 -30.453531 129 118 103 
2.354717 13.283019 -30.913208 129 118 103 
2.388060 13.134328 -30.567163 129 118 103 
2.447761 13.134328 -30.567163 129 118 103 
2.507463 13.134328 -30.567163 129 117 105 
0.955844 4.571429 -10.638961 129 118 101 
0.975357 4.565499 -10.625162 128 117 100 
0.994819 4.559586 -10.611399 129 116 98 
1.015544 4.559586 -10.611399 129 116 98 
1.040312 4.577373 -10.652796 129 116 98 
1.062500 4.583333 -10.666667 131 118 99 
1.083333 4.583333 -10.666667 126 120 101 
1.104167 4.583333 -10.666667 126 120 101 
1.125000 4.583333 -10.666667 126 120 101 
1.145833 4.583333 -10.666667 126 120 101 
1.166667 4.583333 -10.666667 126 119 105 
1.187500 4.583333 -10.666667 125 118 104 
1.208333 4.583333 -10.666667 128 119 106 
1.229167 4.583333 -10.666667 127 118 105 
1.250000 4.583333 -10.666667 126 117 104 
1.270833 4.583333 -10.666667 125 116 103 
1.291667 4.583333 -10.666667 126 117 102 
1.312500 4.583333 -10.666667 126 117 102 
1.333333 4.583333 -10.666667 127 116 95 
1.354167 4.583333 -10.666667 123 113 91 
1.576304 2.266581 -5.274952 117 114 103 
1.580500 2.257858 -5.254651 117 112 102 
1.583653 2.247765 -5.231162 117 112 102 
1.591837 2.244898 -5.224490 117 112 102 
1.602041 2.244898 -5.224490 118 113 103 
1.611217 2.243467 -5.221160 115 115 101 
1.621415 2.243467 -5.221160 116 116 103 
1.630573 2.242038 -5.217834 116 118 104 
1.640764 2.242038 -5.217834 116 118 104 
1.650955 2.242038 -5.217834 115 117 105 
1.661147 2.242038 -5.217834 115 117 105 
1.671338 2.242038 -5.217834 116 118 106 
1.681529 2.242038 -5.217834 115 117 105 
1.691720 2.242038 -5.217834 116 116 105 
1.701911 2.242038 -5.217834 117 117 106 
1.712102 2.242038 -5.217834 116 118 104 
1.722293 2.242038 -5.217834 116 118 104 
1.732484 2.242038 -5.217834 114 119 102 
1.742675 2.242038 -5.217834 114 119 102 
1.752866 2.242038 -5.217834 116 118 104 
1.763057 2.242038 -5.217834 116 118 104 
1.773248 2.242038 -5.217834 116 118 106 
1.784576 2.243467 -5.221160 116 118 106 
1.795918 2.244898 -5.224490 116 118 106 
1.806122 2.244898 -5.224490 116 118 106 
1.962963 2.037037 -4.740741 114 120 109 
1.972222 2.037037 -4.740741 114 120 109 
1.981481 2.037037 -4.740741 114 120 109 
1.990741 2.037037 -4.740741 114 120 109 
2.000000 2.037037 -4.740741 111 122 109 
2.008097 2.035859 -4.737999 111 122 109 
2.017351 2.035859 -4.737999 112 121 109 
2.026605 2.035859 -4.737999 113 122 110 
2.037037 2.037037 -4.740741 113 122 112 
2.046296 2.037037 -4.740741 113 122 112 
2.055556 2.037037 -4.740741 113 123 115 
2.067207 2.039397 -4.746234 113 123 115 
3.023809 2.619048 -6.095238 113 130 122 
3.035714 2.619048 -6.095238 113 130 122 
3.047619 2.619048 -6.095238 113 131 118 
3.059524 2.619048 -6.095238 113 131 118 
3.071429 2.619048 -6.095238 114 132 117 
3.083333 2.619048 -6.095238 114 132 117 
3.097543 2.620998 -6.099777 114 132 121 
3.588424 2.829582 -6.585209 119 136 130 
3.598394 2.827309 -6.579920 120 137 127 
3.611245 2.827309 -6.579920 120 137 127 
3.624096 2.827309 -6.579920 120 137 127 
3.634029 2.825040 -6.574639 120 137 127 
3.643945 2.822775 -6.569366 120 137 127 
3.656776 2.822775 -6.569366 120 137 127 
3.669607 2.822775 -6.569366 119 139 130 
3.682438 2.822775 -6.569366 119 139 130 
3.692308 2.820513 -6.564103 118 140 132 
3.705128 2.820513 -6.564103 118 140 132 
3.717949 2.820513 -6.564103 119 141 133 
-1.844728 2.030128 -4.746234 117 107 86 
-1.835458 2.030128 -4.746234 118 108 87 
-1.825130 2.028952 -4.743486 118 108 87 
-1.814815 2.027778 -4.740741 119 106 88 
-1.805556 2.027778 -4.740741 118 105 86 
-1.795257 2.026605 -4.737999 119 105 90 
-1.784971 2.025434 -4.735260 121 108 92 
-1.775723 2.025434 -4.735260 118 108 89 
-1.766474 2.025434 -4.735260 120 109 90 
-1.756210 2.024263 -4.732524 118 108 89 
-1.746967 2.024263 -4.732524 118 108 89 
-3.357143 7.821429 -18.285715 120 108 85 
-3.321429 7.821429 -18.285715 121 109 86 
-3.285714 7.821429 -18.285715 121 110 91 
-3.257271 7.838926 -18.326622 122 111 92 
-3.221477 7.838926 -18.326622 124 113 97 
-3.185682 7.838926 -18.326622 125 114 98 
-3.142857 7.821429 -18.285715 128 115 99 
-3.107143 7.821429 -18.285715 128 115 99 
-3.071429 7.821429 -18.285715 127 115 101 
-3.035714 7.821429 -18.285715 127 115 101 
-3.000000 7.821429 -18.285715 124 115 98 
1.750000 13.687500 -32.000000 130 119 100 
1.812500 13.687500 -32.000000 131 121 102 
1.875000 13.687500 -32.000000 130 119 100 
1.937500 13.687500 -32.000000 130 119 100 
2.000000 13.687500 -32.000000 130 119 104 
2.062500 13.687500 -32.000000 130 119 104 
2.125000 13.687500 -32.000000 130 119 104 
2.187500 13.687500 -32.000000 130 119 104 
2.250000 13.687500 -32.000000 129 118 103 
2.312500 13.687500 -32.000000 129 118 103 
2.260223 13.026022 -30.453531 129 118 103 
2.294118 12.882353 -30.117647 129 118 103 
2.352941 12.882353 -30.117647 129 118 103 
2.429630 12.977777 -30.340740 129 118 103 
2.443636 12.741818 -29.789091 128 116 104 
2.501818 12.741818 -29.789091 129 117 105 
0.974093 4.538860 -10.611399 128 117 100 
0.993532 4.532989 -10.597672 129 116 98 
1.015544 4.538860 -10.611399 129 116 98 
1.040312 4.556567 -10.652796 131 118 99 
1.062500 4.562500 -10.666667 131 118 99 
1.083333 4.562500 -10.666667 126 120 101 
1.104167 4.562500 -10.666667 126 120 101 
1.125000 4.562500 -10.666667 126 120 101 
1.145833 4.562500 -10.666667 126 120 101 
1.166667 4.562500 -10.666667 126 119 105 
1.187500 4.562500 -10.666667 125 118 104 
1.208333 4.562500 -10.666667 126 117 104 
1.229167 4.562500 -10.666667 126 117 104 
1.250000 4.562500 -10.666667 125 116 103 
1.247581 1.994308 -4.662493 116 113 100 
1.256688 1.994308 -4.662493 116 113 100 
1.576304 2.256278 -5.274952 117 114 103 
1.580500 2.247595 -5.254651 117 112 102 
1.582642 2.236120 -5.227824 117 112 102 
1.591837 2.234694 -5.224490 118 113 103 
1.601020 2.233270 -5.221160 118 113 103 
1.611217 2.233270 -5.221160 116 116 103 
1.620382 2.231847 -5.217834 116 116 103 
1.630573 2.231847 -5.217834 115 117 103 
1.640764 2.231847 -5.217834 115 117 103 
1.650955 2.231847 -5.217834 115 117 105 
1.661147 2.231847 -5.217834 115 117 105 
1.670274 2.230427 -5.214513 115 117 105 
1.680458 2.230427 -5.214513 115 117 105 
1.690643 2.230427 -5.214513 116 116 105 
1.700827 2.230427 -5.214513 116 116 105 
1.711012 2.230427 -5.214513 116 118 104 
1.721197 2.230427 -5.214513 116 118 104 
1.731381 2.230427 -5.214513 114 119 102 
1.741566 2.230427 -5.214513 114 119 102 
1.751750 2.230427 -5.214513 116 118 104 
1.760814 2.229008 -5.211196 116 118 104 
1.770992 2.229008 -5.211196 115 117 105 
1.782304 2.230427 -5.214513 115 117 105 
1.792489 2.230427 -5.214513 115 117 105 
1.806122 2.234694 -5.224490 116 118 106 
1.953704 2.027778 -4.740741 114 121 107 
1.962963 2.027778 -4.740741 114 120 109 
1.971081 2.026605 -4.737999 114 120 109 
1.980335 2.026605 -4.737999 114 120 109 
1.989589 2.026605 -4.737999 114 120 109 
1.998843 2.026605 -4.737999 111 122 109 
2.008097 2.026605 -4.737999 111 122 109 
2.017351 2.026605 -4.737999 112 121 109 
2.026605 2.026605 -4.737999 113 122 110 
2.037037 2.027778 -4.740741 113 122 112 
2.046296 2.027778 -4.740741 113 122 112 
2.055556 2.027778 -4.740741 112 122 114 
2.066010 2.028952 -4.743486 113 123 115 
3.808031 3.431930 -8.023506 115 127 112 
3.823702 3.431930 -8.023506 112 129 112 
3.023809 2.607143 -6.095238 113 130 122 
3.035714 2.607143 -6.095238 113 130 122 
3.047619 2.607143 -6.095238 113 131 118 
3.059524 2.607143 -6.095238 113 131 118 
3.071429 2.607143 -6.095238 114 132 117 
3.083333 2.607143 -6.095238 114 132 117 
3.588424 2.816720 -6.585209 120 137 131 
3.601286 2.816720 -6.585209 120 137 127 
3.611245 2.814458 -6.579920 120 137 127 
3.624096 2.814458 -6.579920 120 137 127 
3.636948 2.814458 -6.579920 120 137 127 
3.646870 2.812199 -6.574639 120 137 127 
3.656776 2.809944 -6.569366 120 137 127 
3.669607 2.809944 -6.569366 119 139 130 
3.682438 2.809944 -6.569366 119 139 130 
3.692308 2.807692 -6.564103 117 138 131 
3.705128 2.807692 -6.564103 118 140 132 
3.717949 2.807692 -6.564103 118 140 132 
-1.835458 2.020858 -4.746234 120 108 83 
-1.825130 2.019687 -4.743486 119 107 81 
-1.814815 2.018518 -4.740741 119 106 86 
-1.805556 2.018518 -4.740741 119 106 86 
-1.794220 2.016185 -4.735260 120 107 87 
-1.784971 2.016185 -4.735260 121 109 88 
-1.775723 2.016185 -4.735260 118 110 90 
-1.765453 2.015020 -4.732524 117 109 89 
-1.755196 2.013857 -4.729792 118 108 89 
-1.745958 2.013857 -4.729792 120 109 90 
-1.717253 2.012695 -4.727063 120 107 89 
-1.708021 2.012695 -4.727063 120 107 89 
-3.349666 7.768374 -18.244989 123 109 84 
-3.314031 7.768374 -18.244989 123 109 84 
-3.285714 7.785714 -18.285715 121 108 90 
-3.257271 7.803132 -18.326622 121 108 90 
-3.228699 7.820628 -18.367714 123 111 99 
-3.185682 7.803132 -18.326622 124 112 101 
-3.149888 7.803132 -18.326622 124 114 102 
-3.107143 7.785714 -18.285715 124 114 102 
-3.071429 7.785714 -18.285715 124 115 98 
-3.035714 7.785714 -18.285715 124 115 98 
-3.000000 7.785714 -18.285715 125 115 96 
-2.957684 7.768374 -18.244989 125 115 96 
-2.928571 7.785714 -18.285715 124 116 96 
1.687500 13.625000 -32.000000 128 119 106 
1.750000 13.625000 -32.000000 128 119 106 
1.812500 13.625000 -32.000000 130 120 108 
1.875000 13.625000 -32.000000 128 120 102 
1.937500 13.625000 -32.000000 128 120 102 
2.000000 13.625000 -32.000000 128 120 100 
2.062500 13.625000 -32.000000 128 120 100 
2.125000 13.625000 -32.000000 128 120 102 
2.187500 13.625000 -32.000000 128 120 102 
2.250000 13.625000 -32.000000 128 120 102 
2.312500 13.625000 -32.000000 128 120 102 
2.260223 12.966543 -30.453531 129 118 103 
2.344322 12.776557 -30.007326 127 118 103 
2.385455 12.683637 -29.789091 127 118 103 
2.417266 12.546762 -29.467627 126 117 104 
2.492754 12.637681 -29.681160 127 118 105 
0.974093 4.518135 -10.611399 127 115 101 
0.993532 4.512290 -10.597672 127 116 97 
1.014230 4.512290 -10.597672 127 116 97 
1.062500 4.541667 -10.666667 125 117 97 
1.081925 4.535761 -10.652796 123 120 98 
1.102731 4.535761 -10.652796 123 120 98 
1.123537 4.535761 -10.652796 122 118 99 
1.144343 4.535761 -10.652796 122 118 99 
1.166667 4.541667 -10.666667 122 118 101 
1.187500 4.541667 -10.666667 122 118 101 
1.208333 4.541667 -10.666667 123 116 103 
1.229167 4.541667 -10.666667 123 116 103 
1.250000 4.541667 -10.666667 124 114 102 
1.237770 1.984073 -4.659841 117 112 102 
1.246871 1.984073 -4.659841 118 113 103 
1.255259 1.982945 -4.657192 118 113 101 
1.263636 1.981818 -4.654545 118 113 101 
1.578475 2.234465 -5.247918 117 114 103 
1.581633 2.224490 -5.224490 117 114 103 
1.590822 2.223072 -5.221160 118 115 107 
1.601020 2.223072 -5.221160 119 116 108 
1.610191 2.221656 -5.217834 118 115 105 
1.619351 2.220242 -5.214513 118 115 105 
1.629535 2.220242 -5.214513 118 115 103 
1.639720 2.220242 -5.214513 118 115 103 
1.649904 2.220242 -5.214513 116 119 102 
1.660089 2.220242 -5.214513 115 117 101 
1.669211 2.218830 -5.211196 115 117 101 
1.679389 2.218830 -5.211196 115 117 101 
1.689567 2.218830 -5.211196 115 117 103 
1.699746 2.218830 -5.211196 115 117 103 
1.709924 2.218830 -5.211196 115 117 103 
1.720102 2.218830 -5.211196 116 118 104 
1.730280 2.218830 -5.211196 116 119 102 
1.740458 2.218830 -5.211196 116 119 102 
1.749523 2.217419 -5.207883 113 118 101 
1.759695 2.217419 -5.207883 114 119 102 
1.769866 2.217419 -5.207883 113 117 105 
1.780038 2.217419 -5.207883 114 119 106 
1.790210 2.217419 -5.207883 116 117 108 
1.802673 2.220242 -5.214513 115 116 107 
1.961828 2.017351 -4.737999 113 123 108 
1.971081 2.017351 -4.737999 112 121 107 
1.980335 2.017351 -4.737999 113 123 108 
1.989589 2.017351 -4.737999 113 123 108 
1.998843 2.017351 -4.737999 112 123 108 
2.008097 2.017351 -4.737999 112 123 108 
2.016185 2.016185 -4.735260 112 123 108 
2.025434 2.016185 -4.735260 112 123 108 
2.035859 2.017351 -4.737999 112 123 110 
2.046296 2.018518 -4.740741 112 123 110 
2.055556 2.018518 -4.740741 112 123 110 
2.066010 2.019687 -4.743486 112 123 110 
3.811024 3.433071 -8.062992 112 128 114 
3.808031 3.416259 -8.023506 112 128 114 
3.819961 3.412916 -8.015656 111 129 114 
3.835616 3.412916 -8.015656 111 129 114 
3.851272 3.412916 -8.015656 111 128 118 
3.023809 2.595238 -6.095238 110 132 120 
3.035714 2.595238 -6.095238 110 132 120 
3.047619 2.595238 -6.095238 110 133 116 
3.059524 2.595238 -6.095238 111 134 117 
3.073715 2.597171 -6.099777 111 134 117 
3.085629 2.597171 -6.099777 110 133 116 
3.601286 2.803859 -6.585209 115 140 127 
3.614148 2.803859 -6.585209 115 140 127 
3.627010 2.803859 -6.585209 117 139 127 
3.636948 2.801606 -6.579920 118 140 128 
3.646870 2.799358 -6.574639 118 138 131 
3.659711 2.799358 -6.574639 119 139 132 
3.669607 2.797113 -6.569366 118 140 132 
3.682438 2.797113 -6.569366 118 140 132 
3.692308 2.794872 -6.564103 116 140 134 
3.705128 2.794872 -6.564103 117 141 135 
-1.825130 2.010423 -4.743486 118 106 80 
-1.814815 2.009259 -4.740741 119 106 86 
-1.805556 2.009259 -4.740741 119 106 86 
-1.795257 2.008097 -4.737999 120 107 87 
-1.784971 2.006936 -4.735260 119 106 86 
-1.775723 2.006936 -4.735260 116 107 88 
-1.765453 2.005777 -4.732524 116 107 88 
-1.755196 2.004619 -4.729792 118 108 89 
-1.744951 2.003462 -4.727063 117 107 88 
-1.735718 2.003462 -4.727063 120 107 89 
-1.726486 2.003462 -4.727063 120 107 89 
-1.717253 2.003462 -4.727063 120 107 89 
-1.703107 1.997699 -4.713464 119 106 88 
-1.692927 1.996550 -4.710753 120 107 87 
-3.349666 7.732739 -18.244989 125 111 86 
-3.314031 7.732739 -18.244989 123 109 84 
-3.285714 7.750000 -18.285715 120 107 89 
-3.257271 7.767338 -18.326622 121 108 90 
-3.228699 7.784753 -18.367714 121 109 97 
-3.185682 7.767338 -18.326622 123 111 99 
-3.149888 7.767338 -18.326622 123 113 101 
-3.107143 7.750000 -18.285715 123 113 101 
-3.071429 7.750000 -18.285715 123 114 97 
-3.035714 7.750000 -18.285715 124 115 98 
-3.000000 7.750000 -18.285715 127 116 97 
-2.957684 7.732739 -18.244989 125 115 96 
-2.922049 7.732739 -18.244989 124 116 96 
-2.892857 7.750000 -18.285715 124 116 96 
-2.857143 7.750000 -18.285715 124 116 96 
0.578313 8.366265 -19.739759 128 119 106 
0.616867 8.366265 -19.739759 128 120 104 
0.653846 8.346154 -19.692308 128 120 104 
0.692308 8.346154 -19.692308 128 120 104 
0.730769 8.346154 -19.692308 128 120 104 
0.767386 8.326139 -19.645084 128 120 104 
0.803828 8.306220 -19.598085 127 118 103 
0.842105 8.306220 -19.598085 127 118 103 
0.880383 8.306220 -19.598085 127 118 103 
2.250000 13.562500 -32.000000 127 119 101 
2.227106 12.717949 -30.007326 127 115 101 
2.285714 12.717949 -30.007326 127 115 101 
2.277580 12.355872 -29.153025 125 116 101 
2.301754 12.182456 -28.743860 125 116 101 
2.366197 12.225352 -28.845070 125 116 103 
2.465950 12.444445 -29.362007 125 116 103 
1.081925 4.514955 -10.652796 121 117 96 
1.102731 4.514955 -10.652796 118 115 93 
1.123537 4.514955 -10.652796 118 115 95 
1.144343 4.514955 -10.652796 121 117 98 
1.166667 4.520833 -10.666667 121 117 100 
1.187500 4.520833 -10.666667 121 117 100 
1.208333 4.520833 -10.666667 121 114 101 
1.229167 4.520833 -10.666667 121 114 101 
1.250000 4.520833 -10.666667 123 113 101 
1.270833 4.520833 -10.666667 123 113 101 
1.291667 4.520833 -10.666667 122 113 97 
1.312500 4.520833 -10.666667 120 111 96 
1.333333 4.520833 -10.666667 120 112 94 
1.237770 1.974972 -4.659841 118 113 103 
1.246163 1.973849 -4.657192 118 113 103 
1.254545 1.972727 -4.654545 119 115 103 
1.262919 1.971607 -4.651902 118 113 101 
1.272727 1.972727 -4.654545 117 113 98 
1.578475 2.224215 -5.247918 117 114 103 
1.581633 2.214286 -5.224490 117 114 103 
1.590822 2.212874 -5.221160 118 115 107 
1.600000 2.211465 -5.217834 118 115 107 
1.609166 2.210057 -5.214513 117 114 103 
1.619351 2.210057 -5.214513 117 114 103 
1.628499 2.208651 -5.211196 118 115 103 
1.638677 2.208651 -5.211196 118 115 103 
1.648855 2.208651 -5.211196 115 117 101 
1.659033 2.208651 -5.211196 115 117 101 
1.668150 2.207247 -5.207883 114 116 99 
1.678322 2.207247 -5.207883 114 116 99 
1.688493 2.207247 -5.207883 114 116 101 
1.698665 2.207247 -5.207883 115 117 103 
1.708837 2.207247 -5.207883 115 117 103 
1.719008 2.207247 -5.207883 116 118 104 
1.729180 2.207247 -5.207883 115 117 101 
1.739352 2.207247 -5.207883 115 117 101 
1.748412 2.205845 -5.204574 112 117 99 
1.758577 2.205845 -5.204574 113 118 101 
1.768742 2.205845 -5.204574 113 117 105 
1.778907 2.205845 -5.204574 113 117 105 
1.787936 2.204444 -5.201270 115 116 107 
1.798095 2.204444 -5.201270 115 116 107 
1.961828 2.008097 -4.737999 113 123 108 
1.971081 2.008097 -4.737999 113 123 108 
1.980335 2.008097 -4.737999 113 123 108 
1.989589 2.008097 -4.737999 113 123 108 
1.998843 2.008097 -4.737999 112 123 108 
2.006936 2.006936 -4.735260 112 123 108 
2.016185 2.006936 -4.735260 112 123 108 
2.025434 2.006936 -4.735260 112 123 108 
2.035859 2.008097 -4.737999 112 123 110 
2.046296 2.009259 -4.740741 113 124 111 
2.056746 2.010423 -4.743486 114 125 112 
3.851555 3.482447 -8.216650 111 128 118 
3.825397 3.444444 -8.126985 112 129 119 
3.818540 3.424063 -8.078896 113 129 115 
3.815506 3.407262 -8.039254 113 129 115 
3.823702 3.400588 -8.023506 111 129 114 
3.835616 3.397260 -8.015656 111 129 114 
3.851272 3.397260 -8.015656 111 128 118 
3.866928 3.397260 -8.015656 112 129 119 
3.023809 2.583333 -6.095238 110 132 120 
3.035714 2.583333 -6.095238 110 132 120 
3.049888 2.585257 -6.099777 110 133 116 
3.061802 2.585257 -6.099777 110 133 116 
3.073715 2.585257 -6.099777 111 134 117 
3.085629 2.585257 -6.099777 111 134 117 
3.099851 2.587183 -6.104322 112 133 119 
3.614148 2.790997 -6.585209 115 140 127 
3.627010 2.790997 -6.585209 117 139 127 
3.639871 2.790997 -6.585209 117 139 127 
3.646870 2.786517 -6.574639 118 138 131 
3.659711 2.786517 -6.574639 118 138 131 
3.669607 2.784282 -6.569366 118 140 132 
3.682438 2.784282 -6.569366 118 140 132 
3.695269 2.784282 -6.569366 116 140 134 
-1.814815 2.000000 -4.740741 118 106 80 
-1.805556 2.000000 -4.740741 119 107 81 
-1.795257 1.998843 -4.737999 120 106 83 
-1.786003 1.998843 -4.737999 120 106 83 
-1.775723 1.997688 -4.735260 120 105 86 
-1.765453 1.996534 -4.732524 119 104 84 
-1.755196 1.995381 -4.729792 120 105 86 
-1.744951 1.994230 -4.727063 122 107 87 
-1.734717 1.993080 -4.724337 120 107 87 
-1.726486 1.994230 -4.727063 119 106 86 
-1.715274 1.991931 -4.721614 119 107 83 
-1.706052 1.991931 -4.721614 119 107 83 
-1.692927 1.987349 -4.710753 119 107 79 
-3.321429 7.714286 -18.285715 121 109 84 
-3.285714 7.714286 -18.285715 121 109 86 
-3.250000 7.714286 -18.285715 121 109 86 
-3.221477 7.731544 -18.326622 120 109 92 
-3.185682 7.731544 -18.326622 121 110 93 
-3.142857 7.714286 -18.285715 117 113 98 
-3.107143 7.714286 -18.285715 117 113 98 
-3.071429 7.714286 -18.285715 124 115 100 
-3.035714 7.714286 -18.285715 124 115 100 
-3.000000 7.714286 -18.285715 125 115 96 
-2.964286 7.714286 -18.285715 125 115 96 
-2.922049 7.697104 -18.244989 127 114 96 
-2.886414 7.697104 -18.244989 127 114 96 
-2.850780 7.697104 -18.244989 127 114 96 
-2.815145 7.697104 -18.244989 127 114 96 
0.501205 8.327711 -19.739759 126 120 99 
0.539759 8.327711 -19.739759 127 119 101 
0.576923 8.307693 -19.692308 127 119 101 
0.615385 8.307693 -19.692308 127 119 101 
0.653846 8.307693 -19.692308 127 119 101 
0.692308 8.307693 -19.692308 127 119 99 
0.729017 8.287769 -19.645084 127 119 99 
0.765550 8.267942 -19.598085 127 119 99 
0.803828 8.267942 -19.598085 126 118 98 
0.842105 8.267942 -19.598085 123 117 101 
0.880383 8.267942 -19.598085 125 118 102 
0.918660 8.267942 -19.598085 123 116 103 
0.952381 8.228572 -19.504763 125 118 104 
2.194946 12.476534 -29.574007 125 116 101 
2.204947 12.212014 -28.946997 125 116 101 
2.245614 12.126316 -28.743860 124 115 100 
2.301754 12.126316 -28.743860 124 115 100 
2.357895 12.126316 -28.743860 125 114 102 
2.422535 12.169014 -28.845070 127 115 103 
1.081925 4.494148 -10.652796 124 113 99 
1.102731 4.494148 -10.652796 125 114 100 
1.123537 4.494148 -10.652796 124 113 99 
1.144343 4.494148 -10.652796 124 113 99 
1.166667 4.500000 -10.666667 123 114 99 
1.187500 4.500000 -10.666667 123 114 99 
1.208333 4.500000 -10.666667 124 115 98 
1.229167 4.500000 -10.666667 124 115 98 
1.250000 4.500000 -10.666667 125 115 96 
1.269181 4.494148 -10.652796 125 115 96 
1.291667 4.500000 -10.666667 126 113 95 
1.312500 4.500000 -10.666667 125 112 93 
1.333333 4.500000 -10.666667 126 113 95 
1.157407 2.000000 -4.740741 118 113 105 
1.166667 2.000000 -4.740741 117 112 102 
1.174567 1.997688 -4.735260 117 112 102 
1.228669 1.965870 -4.659841 116 113 100 
1.237067 1.964753 -4.657192 117 112 100 
1.245455 1.963636 -4.654545 118 113 101 
1.253833 1.962521 -4.651902 118 114 99 
1.262202 1.961408 -4.649262 117 113 98 
1.271283 1.961408 -4.649262 117 113 98 
1.281818 1.963636 -4.654545 117 113 98 
1.581633 2.204082 -5.224490 115 117 103 
1.589809 2.201274 -5.217834 116 116 105 
1.598981 2.199873 -5.214513 115 115 103 
1.609166 2.199873 -5.214513 117 114 101 
1.618321 2.198473 -5.211196 117 114 101 
1.627463 2.197076 -5.207883 117 114 101 
1.637635 2.197076 -5.207883 118 115 103 
1.647807 2.197076 -5.207883 114 116 99 
1.657978 2.197076 -5.207883 115 117 101 
1.667090 2.195680 -5.204574 112 117 99 
1.676190 2.194286 -5.201270 112 117 99 
1.687421 2.195680 -5.204574 113 118 101 
1.697586 2.195680 -5.204574 112 117 99 
1.707751 2.195680 -5.204574 115 117 103 
1.717916 2.195680 -5.204574 115 117 103 
1.728081 2.195680 -5.204574 114 116 101 
1.737143 2.194286 -5.201270 114 116 101 
1.747302 2.194286 -5.201270 112 114 102 
1.757460 2.194286 -5.201270 114 116 103 
1.765377 2.191503 -5.194674 114 116 101 
1.774398 2.190114 -5.191381 114 116 101 
1.783407 2.188727 -5.188094 115 117 101 
1.791271 2.185958 -5.181530 115 117 101 
1.801391 2.185958 -5.181530 116 119 102 
1.961828 1.998843 -4.737999 115 122 108 
1.969942 1.997688 -4.735260 115 122 108 
1.980335 1.998843 -4.737999 113 123 108 
1.989589 1.998843 -4.737999 113 123 108 
1.997688 1.997688 -4.735260 112 123 108 
2.006936 1.997688 -4.735260 112 123 108 
2.015020 1.996534 -4.732524 110 124 110 
2.024263 1.996534 -4.732524 109 123 109 
2.035859 1.998843 -4.737999 109 122 111 
3.835506 3.466399 -8.216650 112 127 122 
3.813307 3.431976 -8.135055 113 128 123 
3.810277 3.415020 -8.094862 113 128 123 
3.818540 3.408284 -8.078896 113 128 121 
3.819253 3.394892 -8.047152 112 127 120 
3.827451 3.388235 -8.031373 112 129 121 
3.839373 3.384917 -8.023506 111 128 120 
3.855044 3.384917 -8.023506 111 127 122 
3.870715 3.384917 -8.023506 111 127 122 
3.886386 3.384917 -8.023506 111 127 122 
3.902057 3.384917 -8.023506 112 129 123 
3.026061 2.573343 -6.099777 113 131 118 
3.037975 2.573343 -6.099777 113 131 118 
3.049888 2.573343 -6.099777 111 132 116 
3.061802 2.573343 -6.099777 111 132 116 
3.073715 2.573343 -6.099777 111 132 118 
3.087929 2.575261 -6.104322 112 133 119 
3.099851 2.575261 -6.104322 114 132 121 
3.619968 2.782609 -6.595813 120 136 135 
3.629928 2.780370 -6.590507 120 136 133 
3.639871 2.778135 -6.585209 120 136 133 
3.649799 2.775904 -6.579920 120 136 133 
3.659711 2.773676 -6.574639 120 136 133 
3.669607 2.771451 -6.569366 121 138 132 
3.682438 2.771451 -6.569366 121 138 132 
-1.814815 1.990741 -4.740741 119 107 81 
-1.805556 1.990741 -4.740741 119 107 81 
-1.795257 1.989589 -4.737999 122 107 85 
-1.784971 1.988439 -4.735260 120 106 83 
-1.775723 1.988439 -4.735260 120 105 86 
-1.766474 1.988439 -4.735260 120 105 86 
-1.755196 1.986143 -4.729792 122 107 87 
-1.743945 1.983852 -4.724337 123 108 88 
-1.730725 1.979287 -4.713464 120 107 87 
-1.721519 1.979287 -4.713464 119 106 86 
-1.713299 1.980426 -4.716177 119 107 83 
-1.706052 1.982709 -4.721614 119 107 83 
-1.693901 1.979287 -4.713464 120 109 81 
-1.684695 1.979287 -4.713464 120 109 81 
-3.293065 7.695749 -18.326622 122 110 87 
-3.250000 7.678571 -18.285715 121 109 86 
-3.214286 7.678571 -18.285715 120 109 92 
-3.178571 7.678571 -18.285715 120 109 92 
-3.142857 7.678571 -18.285715 115 110 96 
-3.107143 7.678571 -18.285715 116 111 97 
-3.071429 7.678571 -18.285715 122 113 97 
-3.035714 7.678571 -18.285715 124 115 100 
-3.000000 7.678571 -18.285715 125 115 96 
-2.964286 7.678571 -18.285715 124 114 95 
-2.928571 7.678571 -18.285715 127 114 96 
-2.892857 7.678571 -18.285715 127 114 96 
-2.850780 7.661470 -18.244989 127 114 96 
-2.815145 7.661470 -18.244989 127 114 96 
-2.779510 7.661470 -18.244989 127 114 96 
-2.515723 10.817610 -25.761005 126 117 102 
-2.450000 10.750000 -25.600000 125 116 101 
-2.400000 10.750000 -25.600000 127 116 99 
-2.350000 10.750000 -25.600000 127 116 99 
0.464891 8.329298 -19.835352 125 119 98 
0.500000 8.269231 -19.692308 125 119 98 
0.538462 8.269231 -19.692308 126 118 100 
0.576923 8.269231 -19.692308 126 118 100 
0.615385 8.269231 -19.692308 126 118 100 
0.653846 8.269231 -19.692308 126 118 100 
0.692308 8.269231 -19.692308 125 117 97 
0.729017 8.249400 -19.645084 125 117 97 
0.765550 8.229665 -19.598085 125 117 97 
0.803828 8.229665 -19.598085 124 116 96 
0.842105 8.229665 -19.598085 122 116 100 
0.880383 8.229665 -19.598085 123 117 101 
0.914286 8.190476 -19.504763 122 115 102 
0.950119 8.171021 -19.458433 122 115 102 
0.990476 8.190476 -19.504763 121 114 101 
2.202899 12.463768 -29.681160 124 115 100 
2.220641 12.241993 -29.153025 124 115 100 
2.245614 12.070175 -28.743860 124 115 100 
2.301754 12.070175 -28.743860 124 115 100 
2.357895 12.070175 -28.743860 127 115 103 
2.422535 12.112676 -28.845070 125 114 102 
1.081925 4.473342 -10.652796 127 115 101 
1.101299 4.467533 -10.638961 127 115 101 
1.122078 4.467533 -10.638961 127 115 101 
1.144343 4.473342 -10.652796 127 115 101 
1.165150 4.473342 -10.652796 125 116 101 
1.187500 4.479167 -10.666667 125 116 101 
1.208333 4.479167 -10.666667 125 116 99 
